# .PCD v0.7 - Point Cloud Data file format
VERSION 0.7
FIELDS x y z
SIZE 4 4 4
TYPE F F F
COUNT 1 1 1
WIDTH 1317
HEIGHT 1
VIEWPOINT 0 0 0 1 0 0 0
POINTS 1317
DATA ascii
0.041505061 0.072403684 0.02250113
0.003833167 0.077362031 0.022531906
0.0072914991 0.077523589 0.022738064
0.01140722 0.077616103 0.024088101
0.015233888 0.079390742 0.024980171
0.023436606 0.077547111 0.024896592
0.028337864 0.077535562 0.024620445
0.032715593 0.077342652 0.024227634
0.037952043 0.077476934 0.022913421
0.041606098 0.077467866 0.022438599
0.0040596598 0.082378641 0.022570442
0.0073783514 0.082524918 0.022576537
0.011556465 0.082624592 0.023778992
0.022598395 0.082227893 0.02495653
0.028614704 0.082856879 0.024596043
0.032738533 0.082561441 0.024159119
0.038010243 0.08247906 0.022942569
0.041753259 0.082540311 0.022387696
0.0043298225 0.087579139 0.022615751
0.0074887476 0.087610468 0.02242622
0.011994315 0.087652273 0.023593418
0.015667604 0.087947875 0.02461642
0.024421724 0.087709822 0.024926653
0.028235832 0.08755029 0.024596455
0.032713182 0.087759398 0.024068471
0.038034156 0.087583981 0.023093754
0.041942123 0.087644532 0.022383427
0.0044134706 0.092484981 0.022867482
0.0074996497 0.09260565 0.02245841
0.011991601 0.092606843 0.023350103
0.016305434 0.092488639 0.024600387
0.022249386 0.093290195 0.024823517
0.027909636 0.092580453 0.024594644
0.032596383 0.092584476 0.024010301
0.037969861 0.092548206 0.023107022
0.042154491 0.092626415 0.022390991
0.0045538093 0.097454332 0.022728244
0.0075230729 0.097545139 0.022401223
0.012065733 0.097634435 0.023232641
0.016794359 0.09738598 0.024532581
0.022401353 0.097399034 0.024681469
0.028019834 0.097368799 0.024516683
0.032629121 0.097402327 0.024007034
0.037961137 0.097510107 0.023105718
0.04231583 0.097576432 0.022371514
0.045161501 0.098419823 0.022926312
0.0047009811 0.10267375 0.022572309
0.0075139604 0.10242756 0.022452693
0.01216289 0.1025843 0.023100102
0.016665662 0.10256448 0.024404321
0.022416135 0.10260274 0.024609152
0.02776044 0.10234845 0.02455703
0.032714657 0.10240576 0.023940282
0.037851203 0.10243831 0.023141326
0.042388525 0.10250331 0.022440972
0.045423299 0.10306549 0.022953317
0.0046539758 0.10752462 0.023009822
0.0076937568 0.10741074 0.022439588
0.012093875 0.10740819 0.022975251
0.016722009 0.10743809 0.024320444
0.022710126 0.10757928 0.024568204
0.027883371 0.10748861 0.024484592
0.032808684 0.10738739 0.023903992
0.037860297 0.10741317 0.023199562
0.042480383 0.10739069 0.022465387
0.045510113 0.10773936 0.022691272
0.0046182219 0.11233868 0.022577325
0.0076194732 0.11239883 0.022400869
0.012146921 0.11243311 0.022950608
0.016705083 0.11259407 0.024190463
0.022236882 0.11243008 0.024596196
0.028048964 0.11252494 0.024455681
0.032698866 0.11248892 0.024027117
0.037802566 0.11246871 0.023238063
0.042538572 0.11244401 0.022485018
0.045758326 0.11285942 0.022667639
0.0046818205 0.117275 0.022835027
0.0075988816 0.11748197 0.022420553
0.012221115 0.1175349 0.022844788
0.016698448 0.1176213 0.024125183
0.022511296 0.11754094 0.024635624
0.027964871 0.11753991 0.024532605
0.032793902 0.1175926 0.024026558
0.037717421 0.11748622 0.023438031
0.042634126 0.11743019 0.022586757
0.046179045 0.11766948 0.022608675
0.0047779107 0.12252606 0.021973884
0.007639471 0.12250843 0.02244593
0.012209666 0.12249477 0.022794859
0.016640313 0.12250775 0.024151271
0.02243842 0.12251537 0.024691463
0.028172664 0.12221551 0.024475342
0.032761518 0.12257999 0.024033982
0.037778821 0.12256351 0.023412507
0.042669538 0.12252165 0.022546303
0.046662092 0.12269626 0.022505438
0.0048293746 0.1278443 0.021430038
0.0076510138 0.12758441 0.022378495
0.012202781 0.1275748 0.022790812
0.016742505 0.12747788 0.024161765
0.022478178 0.12793596 0.024738731
0.027876282 0.12738147 0.024612229
0.032719627 0.12754874 0.024077386
0.037811823 0.12755784 0.023424763
0.042698622 0.12759067 0.022683837
0.047249533 0.12760101 0.022477759
0.050131582 0.12928855 0.023163112
0.0049056546 0.13305201 0.023309724
0.0075724912 0.13254653 0.022387901
0.012207245 0.13255626 0.022759439
0.016753627 0.13255095 0.024205396
0.022723481 0.13276111 0.024731889
0.0279413 0.13244987 0.02448727
0.032618418 0.13255626 0.024027716
0.037698168 0.13255338 0.023436461
0.042738855 0.13262509 0.022730723
0.04754081 0.13254128 0.022502081
0.050404683 0.13313302 0.022949819
0.0047653443 0.13715383 0.02204877
0.0076566674 0.13742833 0.022385057
0.012272983 0.1374986 0.022745131
0.016686557 0.13735674 0.02408837
0.022550525 0.13737185 0.024721561
0.027825851 0.13770531 0.024487041
0.032628849 0.13741958 0.024067605
0.037674882 0.13763654 0.023580162
0.042873334 0.13759352 0.022817088
0.047562383 0.13743378 0.022472424
0.050715841 0.13805331 0.02259597
0.0047300728 0.14149596 0.021859739
0.0077513033 0.142417 0.022433909
0.012282134 0.14246143 0.022663103
0.016768491 0.14255953 0.024208132
0.022450177 0.14227062 0.024771467
0.028297048 0.14263788 0.024555214
0.032702737 0.14249985 0.024142599
0.037654221 0.14248119 0.023732103
0.042976908 0.14243332 0.022849789
0.047470983 0.14256008 0.022419961
0.051022075 0.14244346 0.022549346
0.0048769247 0.14619619 0.021969814
0.0078280326 0.1473728 0.022394512
0.012358218 0.14747664 0.022611113
0.016598795 0.1476665 0.024011515
0.022692988 0.14747611 0.024864219
0.028185362 0.14768474 0.02449229
0.032796334 0.14745665 0.024064612
0.03779351 0.14732999 0.023592401
0.042888109 0.14744361 0.022852249
0.047384627 0.14741631 0.022495003
0.050854474 0.14724606 0.022525419
0.0082413601 0.15225525 0.022388518
0.012516789 0.15245217 0.022520568
0.0169017 0.15277326 0.023782283
0.022027001 0.15361741 0.024537574
0.028210826 0.15239821 0.024539076
0.032943673 0.15280975 0.024145897
0.03772524 0.15271656 0.02372637
0.042882852 0.15256317 0.022816651
0.046859667 0.15214317 0.022247
0.050446093 0.1503811 0.022460416
0.0086801639 0.15640749 0.022217382
0.012732276 0.15733962 0.022384202
0.017350523 0.15771845 0.022789558
0.022416407 0.15821196 0.023195641
0.027482204 0.15833645 0.023087297
0.032531232 0.15808921 0.022989862
0.037529819 0.15760383 0.022719761
0.042165358 0.15684679 0.022370229
0.045812137 0.15601461 0.021909211
0.0097754998 0.16198038 0.021100225
0.013083224 0.16125616 0.022277562
0.017533449 0.16156229 0.022265589
0.022515966 0.16160463 0.02222421
0.027467508 0.16137712 0.022417448
0.032243267 0.16108939 0.022248428
0.03642958 0.16066624 0.022223029
-0.0014761725 -0.17012352 0.02549365
0.0028515696 -0.17031594 0.025370739
0.0058587161 -0.17036289 0.025528785
0.012171011 -0.17050451 0.025339771
0.015007591 -0.17002898 0.025370358
-0.015968805 -0.16582064 0.025166756
-0.011591922 -0.16612281 0.025710195
-0.0071108141 -0.16658066 0.026306685
-0.002315393 -0.16659053 0.026722159
0.0026491636 -0.16662885 0.027065698
0.0075993864 -0.16669057 0.027391775
0.012506776 -0.16686384 0.027315149
0.017361825 -0.16672853 0.027389629
0.021572907 -0.16595908 0.027380403
0.053025898 -0.16559936 0.025261099
0.055577155 -0.16536015 0.025482899
-0.025428081 -0.16073649 0.025303299
-0.02185631 -0.16137226 0.025856668
-0.017243957 -0.16164483 0.026835626
-0.012535829 -0.16207105 0.027243484
-0.0075351568 -0.16230804 0.027344294
-0.0024954535 -0.16244878 0.027303807
0.0025712843 -0.16248725 0.027302423
0.0076124142 -0.16253194 0.027440347
0.012580686 -0.16253668 0.027444195
0.017513724 -0.16245183 0.027457448
0.022235518 -0.16225182 0.027419494
0.02707839 -0.16140771 0.027536081
0.031782247 -0.16076109 0.027939256
0.038453817 -0.16029932 0.027621578
0.043363217 -0.16085026 0.026508706
0.047410917 -0.16147929 0.026927935
0.052603416 -0.16217001 0.027363615
0.055906381 -0.16203918 0.027111189
-0.031269472 -0.15605716 0.02617185
-0.026832761 -0.15641989 0.027006932
-0.022260671 -0.15713678 0.027326699
-0.017476967 -0.15742025 0.027396766
-0.012572227 -0.1575148 0.02740974
-0.0075928732 -0.15750137 0.027470782
-0.0025509261 -0.15749718 0.027460227
0.0024988903 -0.15749146 0.027495041
0.0075845299 -0.15748359 0.027502794
0.012585837 -0.15752955 0.027524633
0.017519124 -0.15749726 0.027515689
0.022450024 -0.15746601 0.027403895
0.027383758 -0.1573748 0.027459469
0.032436337 -0.15718992 0.027388332
0.037528399 -0.1573074 0.027386557
0.042437032 -0.15728743 0.02760612
0.047439586 -0.15734673 0.02779917
0.052534156 -0.15740113 0.028244389
0.056761041 -0.15727243 0.027343279
0.060386859 -0.1560308 0.028477486
-0.036037583 -0.15114877 0.026379535
-0.032061163 -0.15194507 0.027179943
-0.027333194 -0.15243092 0.027441822
-0.022444827 -0.15246817 0.027448526
-0.01758261 -0.15242073 0.02749306
-0.012581971 -0.15246269 0.027489766
-0.0075542405 -0.1524051 0.027500441
-0.0025327406 -0.15241162 0.027503178
0.0025433172 -0.15241672 0.027484465
0.0075857728 -0.15243201 0.027482761
0.012634562 -0.1524563 0.02751627
0.017566301 -0.15239939 0.027477132
0.022405261 -0.15245678 0.027415477
0.02732702 -0.15250465 0.027508566
0.032394018 -0.15261024 0.027717147
0.037502993 -0.15267168 0.027825898
0.04246249 -0.1527428 0.027783936
0.047405541 -0.15285186 0.028120106
0.052445266 -0.15279475 0.028196948
0.057116527 -0.15348203 0.027679473
0.060409568 -0.15390988 0.029180367
-0.040612537 -0.14574093 0.026824383
-0.037027445 -0.14696969 0.027302921
-0.03249063 -0.14748512 0.027516095
-0.027433161 -0.1474994 0.027503852
-0.022501044 -0.14757684 0.027587134
-0.017555997 -0.14751796 0.027568875
-0.012523898 -0.1474663 0.027516946
-0.0075457259 -0.14738385 0.027479252
-0.0025339702 -0.14739805 0.027499693
0.002524395 -0.14739209 0.027461305
0.007575064 -0.14741232 0.027434122
0.012596241 -0.14737459 0.027497839
0.017588068 -0.14734018 0.027394183
0.022312235 -0.14751373 0.027549442
0.027198797 -0.14778773 0.028008761
0.03224453 -0.1483566 0.028034419
0.037266243 -0.1483039 0.028191783
0.042642761 -0.14899576 0.028136514
0.047333557 -0.14889061 0.028707499
0.05216781 -0.14911905 0.02929697
-0.045411639 -0.14232716 0.025636712
-0.041868299 -0.1420726 0.027311785
-0.037537683 -0.14252883 0.02766712
-0.032425441 -0.14256111 0.027747767
-0.027500352 -0.14245293 0.027643707
-0.022519954 -0.14263159 0.027660804
-0.017456867 -0.14243476 0.027616549
-0.012546269 -0.14249319 0.027542874
-0.0075814696 -0.14244436 0.02749506
-0.0025124976 -0.14247017 0.02745527
0.0025363793 -0.14239016 0.027503191
0.0076222154 -0.14242871 0.027435644
0.012571005 -0.14243367 0.027399426
0.017509753 -0.14245701 0.027406372
0.02222058 -0.14260177 0.027797459
0.026546184 -0.14328882 0.028638763
0.031076632 -0.14488626 0.028313134
0.03675013 -0.14497028 0.029986976
-0.046175115 -0.13663931 0.026843404
-0.042593788 -0.13751566 0.0276164
-0.037549745 -0.13757634 0.027753986
-0.032711662 -0.13782398 0.027616698
-0.027617833 -0.1383622 0.02757312
-0.022125926 -0.13855849 0.027247818
-0.017317684 -0.13776267 0.027289527
-0.012475668 -0.13750869 0.02747523
-0.0075341407 -0.13751175 0.027590867
-0.0025234453 -0.13751596 0.027473571
0.0025666279 -0.13744675 0.027392646
0.007569029 -0.1375511 0.027408503
0.012620809 -0.13757005 0.027412551
0.017400412 -0.1375913 0.027513459
0.021924676 -0.13757771 0.027875405
0.025536031 -0.13766687 0.027762979
-0.050642926 -0.1313976 0.026177205
-0.047373697 -0.13240887 0.02739099
-0.042555351 -0.13277701 0.027849039
-0.037784379 -0.13294494 0.02784897
-0.034175511 -0.1336119 0.027959077
-0.02070394 -0.13143244 0.027410142
-0.017147815 -0.13244396 0.027094081
-0.012391702 -0.1326299 0.027348235
-0.0075558298 -0.1325931 0.027509
-0.002543933 -0.13258065 0.027465517
0.0025490103 -0.13255256 0.027434424
0.0076060374 -0.13261172 0.027410317
0.012604489 -0.13261141 0.027455004
0.017550433 -0.13255715 0.027664321
0.021689942 -0.13261063 0.027647508
0.025168419 -0.13450968 0.027168185
-0.051716186 -0.12709844 0.027290341
-0.047897901 -0.12775093 0.027735701
-0.043085705 -0.12819025 0.028281784
-0.039241627 -0.12922403 0.028682876
-0.020109089 -0.1295152 0.028118968
-0.016094478 -0.12790358 0.027134774
-0.012037784 -0.12771994 0.026957657
-0.0076062474 -0.12757544 0.027436681
-0.0025313196 -0.12759145 0.027373318
0.0025371502 -0.12761766 0.027395038
0.0076013533 -0.1276124 0.027395777
0.012545041 -0.12758602 0.027420621
0.017523622 -0.12757269 0.027545661
0.021687116 -0.12753172 0.027052753
-0.055870362 -0.12142438 0.026509242
-0.052807789 -0.12278797 0.027708801
-0.048499838 -0.123688 0.027964348
-0.015495153 -0.12441549 0.026797939
-0.012415899 -0.12291519 0.026464926
-0.0074870768 -0.12263332 0.027402179
-0.0025417069 -0.12255142 0.027386829
0.0025282835 -0.12257201 0.027395854
0.0075801811 -0.12256511 0.027354624
0.012541032 -0.12252202 0.027370963
0.017417183 -0.12253341 0.027381999
0.021455906 -0.12247997 0.026992423
-0.060275991 -0.11647281 0.026082719
-0.057101838 -0.11742277 0.02740062
-0.05343898 -0.11839773 0.028443178
-0.011481099 -0.11731099 0.025779299
-0.0072307605 -0.11751962 0.027276279
-0.0025112079 -0.11746924 0.027446838
0.0025307562 -0.11749016 0.027386293
0.007613441 -0.11747585 0.027384281
0.012619141 -0.11747942 0.027434194
0.017528819 -0.11742578 0.027357675
0.021722162 -0.11744002 0.027143085
-0.060358789 -0.11312049 0.027176101
-0.05858719 -0.11363304 0.028277619
-0.054443728 -0.11471966 0.028226126
-0.011362194 -0.11256228 0.025778187
-0.0071875621 -0.11243708 0.027283223
-0.0025375141 -0.11240682 0.02735259
0.0025220651 -0.11241374 0.027334288
0.0076121939 -0.11238588 0.027358094
0.012611477 -0.11237715 0.027401054
0.017543148 -0.11239547 0.027403167
0.022045093 -0.11235417 0.027209194
0.025381416 -0.1119775 0.025800306
-0.011140768 -0.10737243 0.025812006
-0.007129617 -0.10742738 0.027178705
-0.0025269073 -0.1073883 0.027375637
0.0025341664 -0.10737721 0.027340429
0.0075983168 -0.10736347 0.02734335
0.012659513 -0.10737792 0.0273777
0.017616211 -0.10734235 0.027459458
0.022235613 -0.10743353 0.027190445
0.025534311 -0.10697761 0.026179034
-0.011128143 -0.10225831 0.026333578
-0.0072028544 -0.10251902 0.027173368
-0.0025366307 -0.10242724 0.027358757
0.0025108084 -0.10246586 0.027361324
0.0075838515 -0.10244064 0.027394267
0.012591342 -0.10243941 0.027510611
0.01756742 -0.10246597 0.027408537
0.022316158 -0.10244904 0.027295114
0.025697241 -0.10205848 0.026593447
-0.010889109 -0.097433291 0.026968827
-0.0072353547 -0.097472839 0.027230244
-0.0025648228 -0.097609907 0.027416082
0.0025659632 -0.097587273 0.027380906
0.0076370784 -0.097563177 0.027352095
0.012576934 -0.097527891 0.027407758
0.017551349 -0.097594909 0.027411021
0.022306005 -0.097515017 0.027259691
0.026126668 -0.097470902 0.026790008
-0.01068671 -0.09289927 0.026918868
-0.0073514804 -0.09248402 0.027191518
-0.0025400184 -0.092617907 0.027376527
0.002532297 -0.092637293 0.02737751
0.007582081 -0.092651196 0.027376516
0.012690146 -0.092607528 0.027426401
0.017545788 -0.092641942 0.027347058
0.022295531 -0.092569284 0.02721541
0.026629891 -0.092421174 0.026563272
-0.010384837 -0.088815629 0.026657289
-0.0073874267 -0.087644294 0.027041368
-0.0024933654 -0.087595433 0.027342329
0.0025239456 -0.087613329 0.027391922
0.007618763 -0.087621056 0.027347608
0.012655376 -0.087599531 0.02746227
0.017587252 -0.087642707 0.027414313
0.022329595 -0.087566711 0.027208967
0.026746938 -0.087484241 0.026514746
-0.0070256148 -0.082647122 0.026985126
-0.0024669066 -0.082526945 0.027312618
0.0025436624 -0.082541816 0.027343249
0.0076172645 -0.08252161 0.027402574
0.012654768 -0.082569979 0.027446758
0.017546341 -0.082493231 0.027378289
0.022352578 -0.082557321 0.027215324
0.026208477 -0.082450353 0.026697095
-0.0068137692 -0.077435985 0.026977781
-0.0024236578 -0.077453911 0.02730309
0.0025468322 -0.077469453 0.027379919
0.0076029846 -0.077462159 0.027391111
0.01265564 -0.077452086 0.027417842
0.017567646 -0.077466615 0.027408475
0.02230924 -0.077519357 0.027219627
0.025927074 -0.077673517 0.026506059
-0.0065574492 -0.072592005 0.026816241
-0.0023644378 -0.072465144 0.027296964
0.0025391302 -0.072410882 0.027344791
0.0076454422 -0.07239525 0.02744163
0.012591366 -0.072359331 0.027384209
0.017528759 -0.072440162 0.027330661
0.022303203 -0.072447196 0.027091837
0.025993194 -0.072825626 0.026152944
-0.0062539689 -0.067635305 0.026471412
-0.0023223697 -0.067425184 0.027204534
0.0025257138 -0.067360759 0.027434682
0.0076209554 -0.067371614 0.027399737
0.012649867 -0.067341693 0.027465988
0.017570253 -0.067356616 0.027313419
0.022195397 -0.067453854 0.02703207
0.025954532 -0.067564435 0.026251651
-0.0058400962 -0.062904149 0.026369082
-0.0022558686 -0.062480841 0.027080381
0.0025542749 -0.062416509 0.027408684
0.0075798207 -0.062418796 0.027445933
0.012666441 -0.062400941 0.027386231
0.017568214 -0.062407725 0.027345162
0.022265241 -0.062445797 0.027019259
0.02615794 -0.062387019 0.026254931
-0.0054888143 -0.057883978 0.026405141
-0.0022606377 -0.057520624 0.027030004
0.0025556276 -0.057564594 0.027399825
0.007601311 -0.057553712 0.027443312
0.012593895 -0.057524964 0.027412925
0.017552655 -0.057524815 0.027369328
0.022369741 -0.057534706 0.027186906
0.026144382 -0.057481781 0.026185967
-0.0053077526 -0.052954212 0.02589375
-0.0023018147 -0.052570656 0.027022302
0.0025666733 -0.052639488 0.027379027
0.0075952993 -0.052616633 0.027428973
0.012624368 -0.052625082 0.027402308
0.017591359 -0.052617509 0.02731546
0.022411078 -0.052599538 0.027322974
0.026253117 -0.05239246 0.026326897
-0.0051208301 -0.047981128 0.02554561
-0.0023315412 -0.04762746 0.026961567
0.0025427507 -0.047615949 0.027391322
0.0075905859 -0.047598712 0.027521109
0.01266736 -0.047624744 0.027437657
0.017571906 -0.047592968 0.027379027
0.022426307 -0.047572404 0.027361345
0.0262972 -0.047405943 0.02663975
-0.0052081654 -0.043383509 0.025202641
-0.0021760191 -0.042522781 0.02696456
0.002566647 -0.042541571 0.027354373
0.0075711301 -0.042519804 0.027495982
0.01267668 -0.042544313 0.027466636
0.017582031 -0.042540893 0.027380625
0.022409704 -0.04249762 0.027357018
0.026457563 -0.042591713 0.026747884
-0.0021775491 -0.037503991 0.027067326
0.0025497002 -0.037478842 0.027361441
0.0075680926 -0.037472643 0.027466223
0.01262584 -0.037480969 0.027431851
0.017550129 -0.037513208 0.027395863
0.022407459 -0.037464101 0.027364017
0.026634214 -0.037333224 0.026750021
-0.0020010539 -0.032413065 0.027073639
0.0025500304 -0.0324075 0.0273425
0.0076334751 -0.032401308 0.027461005
0.012607278 -0.032415062 0.027438384
0.017508378 -0.032405097 0.027382983
0.022451935 -0.032354984 0.027356585
0.026899701 -0.032337807 0.027092524
0.030240614 -0.031885471 0.026202492
-0.0019057455 -0.027426133 0.027130004
0.0025694764 -0.027373372 0.027364859
0.0075552925 -0.027386975 0.027402844
0.012624855 -0.027390277 0.027411625
0.017614147 -0.027378583 0.027396658
0.022473291 -0.027332976 0.0273638
0.027192544 -0.027341353 0.027214829
0.030650111 -0.026615113 0.026304947
-0.0018670425 -0.022471303 0.027220625
0.0026299565 -0.022447906 0.027313408
0.0075963768 -0.022446597 0.027419252
0.012592729 -0.022443067 0.027494462
0.017597884 -0.022478076 0.027417697
0.022409111 -0.022370143 0.02733231
0.027311256 -0.022400472 0.027313089
0.031072946 -0.022231787 0.026582755
-0.0018126221 -0.017588362 0.027081467
0.0025279247 -0.017555352 0.027313337
0.0075422027 -0.017618852 0.027481243
0.012574645 -0.017558673 0.027513774
0.017578581 -0.017558781 0.027477115
0.022405805 -0.017589195 0.027415276
0.027312705 -0.017562635 0.027285004
0.031107828 -0.017319629 0.026836822
-0.0017285921 -0.012606395 0.02708618
0.0025281645 -0.012602113 0.027337747
0.0075583966 -0.012657238 0.027585907
0.012662035 -0.012617666 0.027680492
0.017570907 -0.012648487 0.027606037
0.022474626 -0.012660382 0.027458994
0.027335372 -0.012627448 0.027316803
0.031369355 -0.012481359 0.026780326
-0.0050837281 -0.0054110456 0.025404017
-0.0017273191 -0.0076265433 0.027037024
0.0025470715 -0.0076117855 0.027376143
0.0075269146 -0.0076370738 0.027783571
0.012630117 -0.007673298 0.027811721
0.017593544 -0.0076137334 0.027707215
0.022441447 -0.007630439 0.027491391
0.027326928 -0.0075854878 0.027380876
0.031530574 -0.0074888673 0.02694197
-0.0052577103 -0.0020392484 0.025623465
-0.001730539 -0.0024970507 0.02692841
0.0025582325 -0.0025640153 0.027400505
0.0075373291 -0.0025678249 0.02795304
0.012640315 -0.0025901464 0.027976185
0.017594473 -0.0025592879 0.027805302
0.022494821 -0.0025943567 0.027613405
0.027384698 -0.0025370982 0.027384013
0.031880911 -0.002498074 0.027112747
0.035223618 -0.001856486 0.02568098
-0.0015156228 0.0025245163 0.027161686
0.0025348079 0.0025724429 0.027417107
0.0075250189 0.0025315231 0.028057622
0.012585055 0.0025033301 0.028114816
0.017553141 0.0024479139 0.027978526
0.022508044 0.0025385376 0.027833955
0.027398869 0.0025212963 0.027417008
0.032082215 0.002553754 0.027242642
0.035472602 0.0025454802 0.026206704
-0.0013624446 0.0075383177 0.02722148
0.0025241363 0.0075588538 0.027381746
0.0074651591 0.0075911884 0.028157791
0.012594272 0.0075333719 0.02827519
0.017601285 0.0075630108 0.028180679
0.022469664 0.0075755604 0.0279305
0.027446939 0.0075636818 0.027497008
0.032325327 0.0076294518 0.02733412
0.035542514 0.007723718 0.026222812
-0.0013248182 0.012505542 0.027249806
0.002522652 0.012621429 0.027436104
0.0074998587 0.012640161 0.028187608
0.012636754 0.012583109 0.028362803
0.017550813 0.012560041 0.028238837
0.022521095 0.012628833 0.027986528
0.0274074 0.012601406 0.027575979
0.032377306 0.012584629 0.027312936
0.035657439 0.012806842 0.026506893
-0.0012440432 0.017484263 0.027209278
0.0025021532 0.017510887 0.027385533
0.0074114176 0.017584335 0.028155567
0.012588053 0.017552095 0.028407786
0.017602989 0.017572857 0.028327497
0.022517117 0.017550364 0.028043846
0.02747429 0.017578539 0.027583737
0.032460622 0.017551953 0.027338965
0.035913609 0.017766487 0.026852516
-0.0011216932 0.022450933 0.027086884
0.0025678142 0.022450345 0.027377892
0.0073880921 0.022447981 0.028005736
0.012661756 0.022429511 0.028351968
0.017558472 0.022456245 0.028268019
0.022483509 0.022416709 0.028032502
0.027477916 0.022506086 0.027641132
0.032348074 0.022457222 0.027400723
0.036232162 0.022629 0.026901137
-0.00095746201 0.027335426 0.026964705
0.0025494061 0.027357772 0.027401373
0.0073329592 0.02745159 0.027850436
0.012589937 0.027391851 0.028305164
0.017593427 0.027411582 0.028256608
0.022512291 0.027371291 0.028043209
0.02750762 0.02738951 0.027694428
0.03236331 0.027391355 0.027383143
0.036410622 0.027454482 0.026999129
-0.00081157079 0.03241536 0.027047481
0.0025745663 0.03243237 0.027456587
0.0073867911 0.03244568 0.027753239
0.012526906 0.032442261 0.028321981
0.017548088 0.032531157 0.028168594
0.022594173 0.03237303 0.027990848
0.027564781 0.032484524 0.027636517
0.032447368 0.032372043 0.02736089
0.036527492 0.032449473 0.027126068
-0.00063273177 0.037314065 0.026720518
0.0025642687 0.03748484 0.027367063
0.007450758 0.037477866 0.027628191
0.012585769 0.037530888 0.028156964
0.017605444 0.03752023 0.028142305
0.022584917 0.037457131 0.027957452
0.027504951 0.037474755 0.027659418
0.032409564 0.037469588 0.027358627
0.036836941 0.037500776 0.027238391
-0.00066579762 0.042295944 0.02634998
0.002578211 0.042523742 0.027381938
0.0075188475 0.04257796 0.027521295
0.012570118 0.042535912 0.028030993
0.017563224 0.042545058 0.028074535
0.022496531 0.042534191 0.027893379
0.027510852 0.042541254 0.027578635
0.032453686 0.042527489 0.027402371
0.037041426 0.042562116 0.02724712
0.040338065 0.043872401 0.026104586
-0.0003900821 0.046902597 0.02595496
0.0026375845 0.047558587 0.027324116
0.0075556906 0.047617454 0.027457966
0.012528985 0.047669884 0.027997267
0.017549314 0.047565389 0.027940208
0.022533648 0.04758168 0.027866641
0.027500663 0.047610551 0.027572706
0.032449812 0.047569845 0.027407935
0.037267987 0.047639299 0.027315842
0.040500909 0.048472278 0.026225515
-0.00037340677 0.052272569 0.025852013
0.0027964716 0.052566815 0.027269391
0.0075728586 0.052654162 0.027408017
0.012517702 0.052583031 0.027800852
0.017498011 0.052590124 0.027923707
0.022476809 0.052577954 0.027790656
0.027488852 0.052599225 0.027628891
0.032444969 0.052645113 0.02739846
0.037456706 0.052644257 0.027350595
0.040423963 0.053056479 0.026874637
-0.00017163988 0.057349209 0.025533831
0.0029767074 0.05752106 0.027253449
0.0075929835 0.05758737 0.027450563
0.012471771 0.057540756 0.027668754
0.017558279 0.057581414 0.027920229
0.02251415 0.05749885 0.027842119
0.027472168 0.057513189 0.027607579
0.032404363 0.057594731 0.027425816
0.03746495 0.057533603 0.027366515
0.040577047 0.057867371 0.026708692
-2.2307606e-05 0.061151948 0.025013659
0.0030842554 0.062313896 0.027132034
0.0075989175 0.06243787 0.027369622
0.012480794 0.062469859 0.027572481
0.017582808 0.062435191 0.027897302
0.022505643 0.062402081 0.027867017
0.027427297 0.062431041 0.027563427
0.032438986 0.062477101 0.027413826
0.037521467 0.062380899 0.027365308
0.040758971 0.062672675 0.027043447
0.0034558291 0.067324162 0.026968323
0.0075593651 0.067367099 0.027474321
0.012540846 0.067389689 0.02749148
0.017469861 0.067426376 0.027798455
0.022520185 0.067414291 0.027754065
0.027441898 0.067394242 0.027564457
0.032454945 0.067396797 0.027466651
0.037421253 0.067390732 0.027351381
0.040983155 0.067535698 0.026955258
0.0037366089 0.072294511 0.026889941
0.0076260678 0.072394766 0.027415471
0.012587606 0.072439402 0.02747071
0.017544955 0.072418384 0.027681822
0.022477427 0.072440721 0.027655989
0.027435334 0.072427943 0.027482217
0.032400806 0.072409518 0.027434302
0.037408508 0.072411075 0.02739173
0.041041289 0.072484098 0.027095465
0.0040436047 0.077331349 0.02685573
0.0076268669 0.077462696 0.027390696
0.01260312 0.077458464 0.02743577
0.017574236 0.077493139 0.027642932
0.022484111 0.077451512 0.027631173
0.027384266 0.077490643 0.02741988
0.032422505 0.077496618 0.027398316
0.037417985 0.077463567 0.027389271
0.041332301 0.077553049 0.027258486
0.004256397 0.082379319 0.026707867
0.00762871 0.082559668 0.027361078
0.012589539 0.082548521 0.027392983
0.017513139 0.082568653 0.027521839
0.022471813 0.082564101 0.027534505
0.027407285 0.082536526 0.027464103
0.032430746 0.082570873 0.0274096
0.037428375 0.082569152 0.027351957
0.041492578 0.082525417 0.027239464
0.0042333594 0.087396204 0.026298696
0.0076578786 0.087602638 0.027252898
0.012613482 0.087614723 0.027409663
0.017525434 0.087633304 0.027476059
0.022428477 0.087640673 0.027474549
0.027387865 0.087622039 0.027455783
0.032422736 0.087600358 0.027470307
0.037450723 0.087581061 0.027366558
0.041619163 0.087582655 0.027335344
0.004403316 0.092241019 0.026207892
0.0076147784 0.092616238 0.027184309
0.012614339 0.092585281 0.027376831
0.017564695 0.092676818 0.027431278
0.022464059 0.092628092 0.027455617
0.027342092 0.092594668 0.027453456
0.032435123 0.09259709 0.027422963
0.037431028 0.092571594 0.027344652
0.041864429 0.092629209 0.027229253
0.004619136 0.097107455 0.026407311
0.0076707737 0.09752892 0.02727562
0.012603041 0.097573236 0.027438462
0.017540408 0.097580373 0.027402228
0.02248301 0.097567126 0.027470689
0.027363125 0.097563677 0.027434416
0.032415207 0.097574979 0.027418779
0.037427019 0.097530074 0.027360672
0.04199037 0.097558416 0.027303863
0.045139372 0.099908069 0.026350066
0.0047216103 0.10263295 0.02595293
0.0077899932 0.10245992 0.027214285
0.012582958 0.10243864 0.027355773
0.017554142 0.10241898 0.027422618
0.022469295 0.10246366 0.027420647
0.02737885 0.10242669 0.027447594
0.032428041 0.10248546 0.027367864
0.037499022 0.10244735 0.027348425
0.042231072 0.10250194 0.027277181
0.045214336 0.10357583 0.025626007
0.00469016 0.1074532 0.025947612
0.0078027528 0.10739705 0.027163744
0.012605868 0.10741781 0.02740032
0.01753971 0.10738309 0.027350763
0.02245268 0.10739364 0.027415013
0.027367845 0.10738406 0.027376609
0.032391697 0.10738441 0.027354589
0.037442125 0.10738511 0.027361291
0.042361926 0.10743836 0.027308377
0.045399521 0.10849397 0.026009684
0.0046843966 0.11257195 0.026047802
0.0078512179 0.11239589 0.027162096
0.012654409 0.1124451 0.027354222
0.017544735 0.11238822 0.027386317
0.022454603 0.11241561 0.027427034
0.027390247 0.11243542 0.027398234
0.032430176 0.1124131 0.02740529
0.037473276 0.11242271 0.027389094
0.042500932 0.11241489 0.027386488
0.045513298 0.11305952 0.026912035
0.0048534884 0.11706284 0.026475558
0.0078125438 0.11749083 0.02719797
0.012650123 0.11746036 0.027430596
0.017587878 0.11748549 0.027406108
0.022446038 0.11745342 0.02739514
0.02740195 0.1174697 0.027432142
0.03239331 0.11747412 0.027423594
0.037493572 0.11747675 0.027433354
0.042451557 0.11745041 0.027380968
0.045845266 0.11764681 0.027062666
0.0048451424 0.12212494 0.025314553
0.0079713194 0.12249143 0.027267614
0.012621826 0.12256043 0.027451061
0.017549034 0.12253886 0.027393276
0.022491492 0.12254513 0.027421929
0.027382862 0.12254126 0.02745671
0.032424562 0.12256364 0.027430169
0.037478309 0.12253485 0.027372995
0.042474166 0.1225317 0.027412077
0.046246469 0.12278741 0.027251711
0.0081182476 0.12759146 0.027175916
0.012646706 0.12760204 0.027418442
0.017589748 0.12762307 0.027436001
0.022450982 0.12758557 0.027458532
0.027358217 0.12758072 0.027467584
0.032432061 0.12759826 0.027454715
0.037464231 0.12759808 0.027395917
0.042451307 0.12758544 0.027426397
0.046881825 0.12771134 0.027251417
0.008130664 0.13254268 0.027202966
0.012658053 0.13264346 0.027414843
0.017515309 0.13258281 0.027367437
0.022420784 0.13256812 0.027476378
0.027403472 0.13258643 0.027438618
0.032445583 0.13255025 0.027468868
0.037477277 0.13261804 0.027421394
0.042500444 0.13256992 0.027415337
0.047360614 0.13259628 0.027342614
0.050304711 0.13369912 0.026924385
0.0049813245 0.13878417 0.026649132
0.0080531612 0.13748677 0.027264498
0.012647813 0.13751683 0.027374769
0.017582757 0.13748507 0.027373005
0.022492867 0.13744779 0.027507763
0.02738414 0.13757938 0.027441628
0.032438442 0.13754164 0.027440129
0.037479639 0.1375389 0.027403103
0.042383891 0.13753495 0.027381746
0.047456227 0.13744651 0.027478812
0.050511423 0.13791208 0.026803564
0.0048400899 0.14129488 0.026187336
0.0080886623 0.14242184 0.027263699
0.012588038 0.14240992 0.027431555
0.017537098 0.14239997 0.027432414
0.022437863 0.14239271 0.027428076
0.02739411 0.1424181 0.027466221
0.03242898 0.14244632 0.027490046
0.037504982 0.14238614 0.027504195
0.042495485 0.14243306 0.027353119
0.04757477 0.14241742 0.027411813
0.050968703 0.14257438 0.027118549
0.008267005 0.14739022 0.027220227
0.012626247 0.1473604 0.02734926
0.017538214 0.14741769 0.027393941
0.022416065 0.14736941 0.027420714
0.027366824 0.14738446 0.027450278
0.032405496 0.147447 0.027499937
0.037473582 0.14736302 0.027464604
0.042460568 0.14735591 0.027343381
0.047452342 0.14744531 0.027444519
0.050632734 0.14691237 0.027208578
0.0083802752 0.15220597 0.027160194
0.01262399 0.15240888 0.027373951
0.017536443 0.15236436 0.027365834
0.022451291 0.1524487 0.027392808
0.027420806 0.15246394 0.027423583
0.032444969 0.1524356 0.027389079
0.037492905 0.15239155 0.027437663
0.042402335 0.15240079 0.027382039
0.046688065 0.15202893 0.027221661
0.050723128 0.15010141 0.025852026
0.0089014424 0.1562932 0.026937095
0.01266926 0.15729542 0.027434805
0.017596159 0.15743527 0.027405754
0.022443915 0.15747109 0.027473683
0.027395712 0.15742721 0.02731582
0.032414641 0.15748332 0.027406998
0.037411943 0.15734552 0.027386071
0.042099971 0.15677458 0.027260477
0.045816083 0.15609239 0.026579125
0.013371283 0.16065891 0.027071076
0.017902343 0.16102326 0.027201904
0.02242507 0.16128583 0.027274078
0.027450519 0.16115564 0.027277278
0.031992219 0.16065313 0.0276281
0.036766686 0.16031729 0.027751258
0.040670902 0.16015233 0.028456796
-0.0063297367 -0.16538668 0.031068802
-0.0021309259 -0.16575924 0.031272851
0.0025946845 -0.16600567 0.031505182
0.00746076 -0.16628447 0.031716675
0.012741912 -0.16631252 0.031848222
0.017370902 -0.16636671 0.031934567
0.021721156 -0.16581373 0.031573098
-0.021024806 -0.16083626 0.030835556
-0.016971538 -0.161083 0.031826627
-0.012437876 -0.16179651 0.032084659
-0.0074840602 -0.16226712 0.031954706
-0.0024422421 -0.16237269 0.032054111
0.0025500585 -0.16232899 0.032151476
0.0075508985 -0.16234902 0.031983241
0.012547607 -0.16239172 0.032021787
0.017490026 -0.16236664 0.032205041
0.022258304 -0.1622505 0.03189281
0.026943084 -0.16190821 0.031651739
0.031067511 -0.16070504 0.031372823
0.036568865 -0.16041358 0.030865312
0.042708036 -0.16022426 0.030789755
0.047257952 -0.16041598 0.030266199
0.053566165 -0.16060808 0.03025648
0.055145606 -0.16054139 0.030563895
-0.026659347 -0.15597418 0.031722967
-0.022213254 -0.1570057 0.031889293
-0.017543802 -0.15728982 0.032060921
-0.012530506 -0.15735589 0.032168452
-0.0075701014 -0.15744399 0.032306299
-0.0025113465 -0.15745196 0.032251257
0.0025117821 -0.15744732 0.032279622
0.0075730472 -0.15743378 0.032265048
0.012589817 -0.15745616 0.032249231
0.017542312 -0.15742429 0.032300308
0.022465842 -0.15738969 0.032187246
0.027208397 -0.15733884 0.032052658
0.032221124 -0.15705317 0.031757317
0.037377242 -0.15675044 0.03152436
0.042316642 -0.15683271 0.03147836
0.047252242 -0.15698808 0.031376027
0.052503482 -0.15707125 0.030778049
0.056368962 -0.1582188 0.031134296
-0.03577359 -0.15023351 0.031619489
-0.031700972 -0.15153031 0.032155752
-0.027338704 -0.15221873 0.032218665
-0.022445956 -0.15234877 0.032255858
-0.017512213 -0.15241398 0.032305323
-0.012580637 -0.15246196 0.032302178
-0.0076018232 -0.15239619 0.032362245
-0.0025358791 -0.15241633 0.032316968
0.0025241824 -0.15242 0.032370124
0.0075986339 -0.15242958 0.032332417
0.012624383 -0.15243298 0.032372534
0.017566686 -0.15239225 0.032259271
0.022397103 -0.15246376 0.032271411
0.027301477 -0.15255044 0.032019213
0.032437958 -0.15253812 0.031812422
0.037601348 -0.15263739 0.031958435
0.042327475 -0.15268201 0.032072417
0.047312174 -0.15275869 0.031066045
0.051942721 -0.15300085 0.031025847
0.055681828 -0.15367065 0.031603955
-0.036862217 -0.14662923 0.03216479
-0.032337248 -0.1472694 0.032338083
-0.027445046 -0.14743587 0.03235897
-0.022483716 -0.14744326 0.032393809
-0.017569602 -0.1473944 0.032319404
-0.012661789 -0.14739056 0.032285761
-0.007582752 -0.1473901 0.032346167
-0.0025224257 -0.14740209 0.032379437
0.0025585671 -0.14747378 0.032325525
0.0076018153 -0.14742211 0.032266252
0.012574557 -0.14741193 0.032278839
0.017455235 -0.14742056 0.032195069
0.022386609 -0.14757635 0.03202159
0.027141077 -0.14757913 0.031898163
0.032124091 -0.14796463 0.031356424
0.037420478 -0.14870536 0.031346533
0.042039093 -0.14901294 0.031440195
0.047106717 -0.14928055 0.030936176
0.051357497 -0.1488781 0.03031054
-0.041120119 -0.14192128 0.032079984
-0.03737586 -0.1423658 0.032239325
-0.032459736 -0.14248914 0.032445315
-0.027479358 -0.1426436 0.032417074
-0.022515167 -0.14265527 0.032351952
-0.017441984 -0.14261207 0.032330278
-0.012497758 -0.14248225 0.032314077
-0.0075411457 -0.14242014 0.032277051
-0.0025434324 -0.14241384 0.032325555
0.0025020172 -0.14245766 0.032317396
0.007596381 -0.14241424 0.032304786
0.012548381 -0.14236139 0.032253798
0.017437456 -0.14247583 0.032025535
0.022319172 -0.14254577 0.031659182
0.026608394 -0.14334273 0.031444777
0.030498108 -0.14454712 0.030990833
-0.045436159 -0.13634162 0.030910248
-0.041960079 -0.13728905 0.032030731
-0.037486386 -0.13762653 0.032284811
-0.032749332 -0.13807368 0.0322445
-0.028025296 -0.1389059 0.032202758
-0.022840304 -0.13900402 0.031579848
-0.017092455 -0.13838246 0.031719003
-0.012324129 -0.13776159 0.032132715
-0.0075619295 -0.13752308 0.032239936
-0.0025266081 -0.13759376 0.032269992
0.0025645399 -0.1375863 0.032236107
0.0075339763 -0.13751131 0.032274403
0.012486965 -0.13764265 0.032158051
0.017388942 -0.1376901 0.031724375
0.021801624 -0.1377472 0.031373017
0.02540284 -0.13930072 0.030555479
-0.050309122 -0.13009475 0.030466603
-0.046381522 -0.13193126 0.031775955
-0.042578287 -0.1328053 0.03199118
-0.038080584 -0.13323015 0.031869609
-0.03434892 -0.13423543 0.030954737
-0.016198695 -0.13323699 0.030256378
-0.011603121 -0.13293305 0.032052107
-0.0075203786 -0.13266987 0.031981245
-0.0024933503 -0.13269629 0.032077085
0.0025354975 -0.13265631 0.032248355
0.0074825757 -0.13260347 0.0322363
0.012391918 -0.13259484 0.032054313
0.017434238 -0.13258304 0.031349193
0.021228988 -0.1326521 0.031189999
-0.05129113 -0.12646613 0.031127684
-0.047596883 -0.12777182 0.032008719
-0.043265127 -0.12854849 0.031759851
-0.03930686 -0.12954006 0.031515487
-0.010937419 -0.12797618 0.031528812
-0.0074589499 -0.12768625 0.031767745
-0.0024951946 -0.12763821 0.031764861
0.0025419116 -0.12761173 0.032056775
0.0075144279 -0.12760016 0.032129761
0.012472808 -0.12762071 0.032067239
0.017341431 -0.12774284 0.03125361
0.021215411 -0.12731324 0.031188004
-0.055057138 -0.12187911 0.03167399
-0.052012037 -0.12247091 0.031693257
-0.048891149 -0.12358537 0.03202277
-0.010485765 -0.1238685 0.03113484
-0.0072148433 -0.12278296 0.03153355
-0.0024141334 -0.12256587 0.031657364
0.0025637846 -0.12256886 0.031987544
0.0074711931 -0.1226029 0.031891447
0.012360261 -0.12263449 0.03182799
0.017413346 -0.12262021 0.031052509
0.021182399 -0.12277238 0.030911034
-0.055959612 -0.11706632 0.030815965
-0.053497627 -0.11845574 0.031628262
-0.049566422 -0.11830116 0.030358851
-0.010010267 -0.11898538 0.030242853
-0.0068204906 -0.11764939 0.031249385
-0.0023686844 -0.1175729 0.031575777
0.0025363939 -0.11748499 0.031843841
0.0075780977 -0.11745977 0.031733945
0.012355619 -0.11752198 0.031922363
0.017469956 -0.11754522 0.030973647
0.021188799 -0.11752773 0.030732231
-0.057562277 -0.11397015 0.030478498
-0.054925103 -0.1148259 0.032301962
-0.0066339653 -0.11240762 0.031042267
-0.0023968117 -0.1125465 0.031327259
0.0025429956 -0.11243818 0.031845182
0.0074314931 -0.11233982 0.031777937
0.012460723 -0.11242808 0.032059301
0.017208401 -0.11225139 0.031112757
0.021213816 -0.11238549 0.030596318
-0.0064834384 -0.10746059 0.031129707
-0.0023937766 -0.10740998 0.031340331
0.0026153226 -0.1073771 0.031713452
0.0075171478 -0.10738295 0.031922609
0.012482163 -0.10737567 0.032072395
0.017223688 -0.10731321 0.031278178
0.02167372 -0.1076128 0.03068357
-0.0064125303 -0.10243218 0.03108881
-0.0023208749 -0.10243505 0.031432871
0.0025455239 -0.10242788 0.032024633
0.0075789397 -0.1025058 0.031997181
0.01247428 -0.10244888 0.032147594
0.017303806 -0.10254164 0.031175984
0.021349592 -0.10253556 0.030749744
-0.0061185048 -0.097869478 0.031150896
-0.0023087363 -0.097563528 0.031379297
0.002553286 -0.097456098 0.032046396
0.007545663 -0.097510226 0.032092638
0.012408289 -0.0975229 0.032173336
0.017289046 -0.097463764 0.031093666
0.021241855 -0.097472176 0.030828534
-0.010378188 -0.092903107 0.030363113
-0.0063463519 -0.092901371 0.030954808
-0.0021875743 -0.092648245 0.031250976
0.0026546614 -0.092621937 0.032006379
0.0076221912 -0.092546031 0.03219641
0.012452004 -0.092579238 0.032147728
0.017338363 -0.092624389 0.031056738
0.021668844 -0.092483923 0.030788427
-0.0063613714 -0.087013826 0.030699397
-0.002182811 -0.087740704 0.030981882
0.002605838 -0.087677516 0.031864669
0.0075832163 -0.087603882 0.032131497
0.012372985 -0.087500662 0.032222781
0.017188521 -0.087549061 0.030983331
0.021594575 -0.087763488 0.030590728
0.025087561 -0.085665882 0.030298373
-0.0059274472 -0.082786553 0.030448321
-0.0020890615 -0.082584508 0.030798523
0.0025753577 -0.082653798 0.031484306
0.0076746964 -0.082557745 0.031972867
0.012431377 -0.082542822 0.032175321
0.017179465 -0.082559593 0.031119071
0.021289192 -0.08256653 0.030521389
0.025436405 -0.081854448 0.030138165
-0.0055521834 -0.078281686 0.030342918
-0.0021389099 -0.077718273 0.030714378
0.0026269455 -0.077578276 0.031119848
0.0076516569 -0.077564836 0.031721387
0.012475981 -0.077458329 0.032266181
0.01716334 -0.077453583 0.031121286
0.021674475 -0.077547215 0.030710584
-0.0016596691 -0.072243161 0.030674331
0.0024848359 -0.072487019 0.031012148
0.0077027432 -0.072460674 0.031463254
0.012488054 -0.072511375 0.032153796
0.017252335 -0.072499372 0.031168707
0.021405561 -0.072558232 0.030678984
-0.0012488476 -0.067357607 0.030833686
0.0022375181 -0.06741602 0.03094231
0.0077716941 -0.067423418 0.031326752
0.01253093 -0.067477688 0.032106217
0.017472493 -0.067391314 0.030950382
0.020968448 -0.06740097 0.030707188
-0.0010822535 -0.062801763 0.030756719
0.0021578316 -0.062568404 0.030976262
0.0078601008 -0.062591925 0.031199845
0.012494638 -0.062460549 0.032070193
0.017321791 -0.062470991 0.031019639
0.021277051 -0.062339652 0.030800963
-0.00069388008 -0.057752918 0.030682161
0.0023114516 -0.057521984 0.031027209
0.0079114903 -0.057687856 0.030947464
0.012609475 -0.057429772 0.031999595
0.017185466 -0.057518862 0.03122578
0.021219026 -0.057174526 0.030846458
-0.00056906056 -0.053315856 0.030468585
0.0026042187 -0.052529875 0.031209672
0.0078826379 -0.052672666 0.03083474
0.012743397 -0.052583952 0.031932149
0.017163197 -0.052563466 0.031537052
0.02178972 -0.052338887 0.030849775
0.025431463 -0.050172955 0.030006537
-0.00019110992 -0.047199592 0.030420201
0.0028473176 -0.04757214 0.031104432
0.007695388 -0.047543634 0.030788474
0.012801686 -0.047596242 0.031704932
0.017187679 -0.047463462 0.031850882
0.021488875 -0.047455899 0.031078307
-0.0002314805 -0.042570848 0.030381801
0.0030084229 -0.042551752 0.031145483
0.0074593602 -0.042549029 0.030797016
0.012891432 -0.042523421 0.031484615
0.017432168 -0.042501494 0.031909671
0.021787038 -0.042529944 0.031054107
-0.0015627093 -0.036219075 0.030397866
0.0030756358 -0.037416011 0.031146092
0.0074099503 -0.037339926 0.030992478
0.012857951 -0.037423462 0.031298798
0.017366635 -0.03751858 0.03189344
0.021873146 -0.037503541 0.031256046
-0.0016491989 -0.033182453 0.030398333
0.0032134138 -0.032522254 0.031236241
0.0074106236 -0.032310985 0.031340942
0.012852557 -0.032446992 0.031270504
0.017480778 -0.032388084 0.031807695
0.022113681 -0.032335684 0.031148827
0.025670674 -0.031737443 0.030104825
-0.0015130098 -0.027245801 0.030446865
0.0031671287 -0.027421933 0.031236319
0.0074435156 -0.027330235 0.031387862
0.012653013 -0.027381301 0.031138524
0.017572537 -0.027469791 0.031824335
0.022210596 -0.027382752 0.031218115
0.026037745 -0.026723053 0.031117152
-0.0018034318 -0.022368025 0.030585244
0.0031460272 -0.022345498 0.031225767
0.0075100884 -0.022422822 0.031640895
0.012537493 -0.022326244 0.031159153
0.017761618 -0.022400772 0.031850148
0.022208087 -0.022418965 0.031651489
0.026357293 -0.022263352 0.031196197
-0.0011265895 -0.017436195 0.030446142
0.003269034 -0.017452508 0.031218844
0.0075662998 -0.017555067 0.03179951
0.012604585 -0.017439919 0.031286951
0.017698433 -0.017549189 0.031792
0.02238683 -0.017462714 0.031628098
0.026510851 -0.017439406 0.031304505
-0.0012149919 -0.013044275 0.030223113
0.003212322 -0.012596273 0.031177228
0.007550322 -0.012510291 0.031928688
0.012722985 -0.012672236 0.031514812
0.017623564 -0.012584506 0.031872351
0.022265041 -0.012586701 0.031754408
0.026810419 -0.012365712 0.031441722
0.030309973 -0.011106431 0.030168245
-0.00068121578 -0.0073461332 0.030488001
0.003133768 -0.0076172659 0.030959383
0.0075803204 -0.007509124 0.032129094
0.012579756 -0.0076246164 0.031468496
0.017669538 -0.0075558219 0.031994805
0.022325333 -0.0075615468 0.031874713
0.026983554 -0.0074559073 0.031578504
0.030469967 -0.0075387396 0.030203052
-0.0010487949 -0.0023672921 0.030273989
0.00332422 -0.0025212488 0.030854622
0.0076786866 -0.0025610223 0.031998202
0.012526638 -0.0024466317 0.031590898
0.017782146 -0.0025632104 0.032011237
0.022274399 -0.0024553363 0.03203772
0.027179504 -0.002479922 0.031546641
0.030881485 -0.0022183319 0.03050058
-0.0010227988 0.0029111321 0.030433364
0.0032507151 0.0025682838 0.030831633
0.0076605109 0.0025937019 0.032011952
0.012417535 0.0025339648 0.031778175
0.017679272 0.0025832388 0.031967819
0.022324268 0.0024941857 0.032147292
0.02722366 0.0026273078 0.031611193
0.031289335 0.0029265655 0.030772537
-0.0010919146 0.0072705578 0.030468138
0.0030969011 0.0076246602 0.03103389
0.0077329883 0.0075495588 0.032156907
0.01254268 0.007597425 0.031992253
0.017655116 0.0076057878 0.031961706
0.022342119 0.0076365573 0.032275241
0.027197624 0.007603812 0.031781394
0.031422589 0.0075748339 0.031031691
-0.00081428426 0.012187847 0.030527292
0.0029831179 0.012457996 0.031288791
0.0078219371 0.012555175 0.032066055
0.012600764 0.012616039 0.032100458
0.017654525 0.012658132 0.032087456
0.02246579 0.012609303 0.03232462
0.027269801 0.012651502 0.03204434
0.03187079 0.012576521 0.031152893
-0.00067805196 0.017648246 0.030456219
0.0030456923 0.017532241 0.031265069
0.007856831 0.017510498 0.032016892
0.012551421 0.017549289 0.032246761
0.017666608 0.017544268 0.032087635
0.022465901 0.017560191 0.032355674
0.027311282 0.017614787 0.032061975
0.032142922 0.017557958 0.031358726
0.035139989 0.018325273 0.030347597
-0.00049006264 0.022284063 0.03055317
0.0029079756 0.02237061 0.031260554
0.0078287767 0.02241461 0.032025598
0.012530494 0.022453023 0.032273807
0.017569227 0.022351252 0.031912785
0.02247115 0.022450538 0.032342277
0.027266519 0.022460252 0.032196589
0.032095719 0.022497313 0.03157616
0.035301879 0.022480991 0.03070054
-0.00044923899 0.027371312 0.030240403
0.0029098915 0.027416999 0.031068085
0.007845209 0.027382433 0.031904422
0.012576281 0.027405269 0.032293648
0.017562496 0.027420968 0.032057963
0.022434287 0.027383123 0.0323544
0.02732702 0.027391365 0.032216676
0.03216831 0.02751202 0.031643339
0.035676759 0.027722787 0.030887637
-0.00044442413 0.031352963 0.030047525
0.0030947549 0.032438252 0.0310538
0.0078332406 0.03236524 0.031849261
0.01265043 0.032417551 0.032329869
0.01759471 0.032413345 0.032250769
0.022480857 0.032423403 0.032346182
0.027303958 0.032419138 0.032289341
0.032123074 0.032455109 0.031704556
0.035924699 0.032481451 0.031012975
-0.00018006044 0.035349246 0.030139903
0.0032819854 0.037278201 0.030982014
0.0078004114 0.037499849 0.031791605
0.012655656 0.037443135 0.032296907
0.017536348 0.037442613 0.032306083
0.022465805 0.037490442 0.032344151
0.027322972 0.037525572 0.032300722
0.032206144 0.037530389 0.031831078
0.036208156 0.037625149 0.031277794
0.0032775316 0.042563755 0.030796457
0.0078452574 0.042465117 0.031721774
0.01265244 0.042529039 0.032287922
0.017539633 0.042546585 0.032327089
0.02251685 0.042503148 0.03232355
0.027322398 0.042535745 0.032304667
0.032220367 0.042558972 0.031967483
0.036326386 0.042589724 0.031232588
0.0035099445 0.047388382 0.030772377
0.007718178 0.04756188 0.03152369
0.012706337 0.047557987 0.032202534
0.017594913 0.047566183 0.032319851
0.022429217 0.047634378 0.032302689
0.027318751 0.047585629 0.032305632
0.032276724 0.047608525 0.032035127
0.036589418 0.047714021 0.03126359
0.0037454201 0.052399836 0.030781392
0.0077921287 0.052564763 0.031477354
0.012742445 0.05261074 0.032119386
0.017595833 0.052546851 0.032312792
0.022446407 0.052634522 0.032323502
0.027350456 0.052643318 0.032354191
0.032318044 0.052601919 0.032050986
0.036810931 0.052705191 0.031391043
0.0041120858 0.057469189 0.030844554
0.0078242188 0.057557348 0.031508572
0.012751579 0.057538874 0.032036278
0.017524036 0.057505321 0.032277215
0.022477904 0.057542693 0.032401256
0.027373472 0.057567183 0.032328352
0.032311939 0.057493042 0.032152299
0.037197813 0.057584409 0.031351216
0.040116876 0.058285497 0.030309457
0.0042290185 0.062515393 0.030601449
0.007825966 0.062452719 0.031389251
0.012745974 0.062393051 0.032022562
0.017582314 0.062403869 0.032324977
0.022455797 0.062446505 0.032362275
0.02738128 0.06242796 0.032368939
0.032331303 0.062448345 0.032163005
0.0372581 0.062431842 0.03141607
0.040305879 0.062524997 0.030594278
0.0044717486 0.067050599 0.030750612
0.007827458 0.067360118 0.031347353
0.012731777 0.067392953 0.031922162
0.017505251 0.06737867 0.032255661
0.022442736 0.067362033 0.032263719
0.027393794 0.067354582 0.032353166
0.032341756 0.067411385 0.032275803
0.037158001 0.067485601 0.031436156
0.040440634 0.067603707 0.030763753
0.0045798467 0.072004616 0.030576464
0.0079033803 0.072418697 0.031137092
0.012769415 0.072336383 0.031803384
0.017545843 0.072390683 0.032237764
0.022468509 0.072407052 0.032320417
0.027349718 0.072395362 0.032366663
0.032335047 0.072388358 0.032109719
