# .PCD v0.7 - Point Cloud Data file format
VERSION 0.7
FIELDS x y z
SIZE 4 4 4
TYPE F F F
COUNT 1 1 1
WIDTH 1287
HEIGHT 1
VIEWPOINT 0 0 0 1 0 0 0
POINTS 1287
DATA ascii
-0.055288281 -0.015206833 0.047485117
-0.052755293 -0.017639482 0.047467403
-0.049738545 -0.019475857 0.046836864
-0.0010698733 -0.019124992 0.047308415
0.0028043494 -0.017896878 0.04762214
0.006692389 -0.016475132 0.047559705
0.010359684 -0.015175143 0.045128573
-0.055508096 -0.011681857 0.047446053
-0.053280927 -0.012574556 0.047533259
0.0042924406 -0.014649669 0.047768217
0.0081080794 -0.013415892 0.047579579
0.012203415 -0.011880701 0.047601737
0.015860964 -0.010561085 0.047401365
-0.055347048 -0.0084177535 0.047544602
-0.05236531 -0.0075870282 0.047555115
-0.049032841 -0.0060574221 0.047662858
0.01349236 -0.008701737 0.047523376
0.017360296 -0.0073964894 0.047568101
0.021071522 -0.0058921524 0.04743186
-0.051747296 -0.0031275093 0.047644153
-0.047667187 -0.0024612963 0.047535691
-0.043855917 -0.001174045 0.047361284
0.018596597 -0.0040124147 0.047589175
0.022599075 -0.0026589371 0.047583465
0.026737375 -0.0011911535 0.047647405
0.030377097 -0.00012143992 0.047675863
-0.050563127 4.2532902e-05 0.047628805
-0.046853203 0.0011823023 0.047496028
-0.042474143 0.0024578732 0.047567762
-0.038632285 0.0038800784 0.047735963
0.023917988 0.00077329972 0.047947995
0.027866656 0.0021647131 0.04759388
0.031953387 0.003030821 0.047617465
0.036052536 0.0046175048 0.04767118
-0.040894657 0.005742406 0.04739077
-0.037153903 0.0071822754 0.047558408
-0.033343498 0.0086620953 0.047468852
-0.029598787 0.0097068809 0.04672417
0.029309444 0.0055264803 0.047212835
0.032875493 0.0071376497 0.047598902
0.036681451 0.0077017345 0.047608525
-0.035417467 0.010604043 0.047085404
-0.031863671 0.011967261 0.047534611
-0.02811929 0.01330103 0.047535114
-0.024254328 0.014388369 0.04688853
0.034315251 0.011393073 0.047587458
0.036682017 0.012547945 0.047647778
-0.030422376 0.015440297 0.047207721
-0.026733911 0.016572885 0.047586244
-0.022709079 0.017973915 0.047576047
-0.018761104 0.01911068 0.047547936
0.034803405 0.019325776 0.046508867
0.03680376 0.017495738 0.047643386
-0.021338524 0.021023657 0.047632437
-0.017462086 0.022440856 0.047578242
-0.013755288 0.023703432 0.047593813
0.033549428 0.023235163 0.047522258
0.036254853 0.021707673 0.047616996
-0.015983943 0.025651613 0.047456603
-0.012316353 0.026920594 0.047615472
-0.008099582 0.028492939 0.047539525
-0.0044044312 0.02976232 0.047982831
0.028627159 0.028537802 0.047418483
0.031991072 0.027104106 0.047587425
0.035295773 0.025385525 0.047603942
-0.010181519 0.030235434 0.046419095
-0.0068687391 0.031245051 0.04756581
-0.0026842395 0.032768991 0.047581218
0.00099373772 0.034016553 0.047666401
0.023923023 0.033662412 0.047551233
0.027397562 0.032262906 0.04757084
0.030709753 0.031225044 0.047509778
-0.0010986445 0.035834331 0.047571801
0.002559141 0.037382573 0.047632784
0.0070135463 0.038911913 0.047523409
0.012277612 0.039776023 0.047658332
0.018186834 0.038937606 0.047631677
0.02253186 0.037645709 0.047579162
0.026014768 0.036665697 0.047400828
0.0037523122 0.040673409 0.047633741
0.007798702 0.041450031 0.047527444
0.012496455 0.041736733 0.047458131
0.017571742 0.04174972 0.0475628
0.021676956 0.041223824 0.047320087
0.025186528 0.040469751 0.0472656
0.017891726 0.045085967 0.048473518
-0.036457315 -0.040400892 0.052805539
-0.032721043 -0.040529288 0.052326292
-0.027793555 -0.040542267 0.05277985
-0.024154427 -0.040465523 0.052415513
-0.041234404 -0.036372554 0.05240006
-0.03731028 -0.037204269 0.052598398
-0.032624718 -0.038173508 0.052554391
-0.027298462 -0.038185265 0.052572351
-0.022536337 -0.037329216 0.052587334
-0.018771533 -0.036187425 0.052546021
-0.045914728 -0.03151631 0.05263041
-0.042456172 -0.032345153 0.052662559
-0.038657416 -0.033684801 0.052606627
-0.02126132 -0.034089193 0.052441165
-0.017364111 -0.032804295 0.052602611
-0.013277563 -0.031216053 0.052537922
-0.050587203 -0.025584109 0.05238083
-0.047275584 -0.027166277 0.052551553
-0.043789912 -0.028593255 0.052508362
-0.015851283 -0.029413678 0.052689478
-0.012054714 -0.028311944 0.052625664
-0.0080156559 -0.026832692 0.052555125
-0.0044240444 -0.025368584 0.052311689
-0.051759969 -0.021919856 0.052597951
-0.048615076 -0.023215625 0.052591842
-0.010116544 -0.02479963 0.051882036
-0.0066619744 -0.023908865 0.052743208
-0.0025205687 -0.022363277 0.052551854
0.0015341665 -0.021143332 0.052571416
-0.055168111 -0.016805442 0.052235726
-0.05278302 -0.017646404 0.052639063
-0.049607761 -0.019709423 0.054623108
-0.00093679241 -0.019205665 0.052263778
0.0028170033 -0.017935636 0.052578222
0.0067755054 -0.016609227 0.05249349
0.010207213 -0.015410666 0.051021997
-0.055404954 -0.011560768 0.052340738
-0.053238455 -0.012580676 0.052554186
0.0042355014 -0.0144456 0.052583706
0.0081533082 -0.013235835 0.052554701
0.012276882 -0.011857701 0.052605972
0.01598651 -0.010685139 0.052488592
-0.055383027 -0.0088075837 0.053037561
-0.052400891 -0.0075794011 0.052435931
-0.049014829 -0.005996081 0.052436471
0.013306105 -0.0085711563 0.052556943
0.017450925 -0.0074897753 0.052508101
0.021127217 -0.0060625733 0.052751254
-0.051607396 -0.0029127039 0.052509945
-0.047587149 -0.0024317354 0.052577585
-0.043871094 -0.0010101545 0.052529413
0.018861724 -0.0037479401 0.052500259
0.022619549 -0.0026941192 0.052538618
0.026812414 -0.0012596861 0.052683596
0.030613786 -0.0001194553 0.050985504
-0.050648045 0.00026231277 0.052763928
-0.04694844 0.0010747156 0.052523911
-0.042442035 0.0024210035 0.052576799
-0.038507853 0.0037722385 0.052440923
0.023909464 0.0009243915 0.052561101
0.027841352 0.0021354142 0.052544925
0.032036353 0.0028936586 0.052628096
0.035869427 0.0045391223 0.052541405
-0.041033909 0.0056157499 0.052303568
-0.037148427 0.007114327 0.05259357
-0.03331947 0.0085990317 0.052503057
0.029335035 0.0057250871 0.052355178
0.032886826 0.0070883743 0.052592356
0.036726728 0.0078158202 0.052496646
-0.035521429 0.010294395 0.052329872
-0.031824104 0.011952961 0.052543327
-0.028031053 0.013381333 0.052708592
-0.024037201 0.014515882 0.052924786
0.034407962 0.011208225 0.052605584
0.036978681 0.01245054 0.052500248
-0.026671246 0.016531322 0.052589472
-0.022760727 0.01787794 0.052605119
-0.018815635 0.019082906 0.052422158
0.034744445 0.019372722 0.052950669
0.037086669 0.0175221 0.05257282
-0.021222513 0.021104917 0.052629258
-0.017460072 0.022439759 0.052552599
-0.013474185 0.023765393 0.052579641
0.033475086 0.023174094 0.052549526
0.036223181 0.02165523 0.052535996
-0.016027436 0.025556713 0.052254442
-0.012180937 0.026867962 0.052647304
-0.0081759701 0.028371032 0.052597787
-0.004519341 0.029447723 0.052490991
0.028661704 0.028461887 0.052587595
0.031954784 0.027094269 0.052515548
0.035238456 0.025667725 0.052544724
-0.010772393 0.030117024 0.052252337
-0.0068101599 0.031230796 0.052546006
-0.0027050653 0.032656122 0.052525699
0.0010800915 0.033942338 0.052669641
0.023984883 0.033661045 0.052459143
0.027430143 0.032286916 0.052601147
0.03046765 0.031465255 0.05268294
-0.00096304825 0.035821717 0.052458443
0.0026543417 0.037375644 0.052601937
0.006874775 0.038759511 0.052602127
0.012129191 0.039810084 0.051917832
0.01825083 0.039057024 0.052485343
0.022520512 0.037554778 0.052553233
0.026086252 0.036580559 0.052510366
0.0038145818 0.040534176 0.052346542
0.0078451103 0.041469671 0.052507754
0.012656465 0.041678645 0.052456636
0.017594317 0.041706178 0.052587617
0.021594465 0.041179422 0.052477941
0.025319835 0.040159509 0.051026147
-0.036668394 -0.040179405 0.057466686
-0.032726448 -0.040367797 0.057775345
-0.027135797 -0.040657524 0.0571578
-0.02418901 -0.040481657 0.057077203
-0.041255519 -0.036258891 0.057552889
-0.03742329 -0.037218139 0.057536047
-0.032614257 -0.038071826 0.057598852
-0.027338183 -0.038174134 0.057589404
-0.022572039 -0.037187465 0.057477314
-0.018904241 -0.036039766 0.057623856
-0.045879237 -0.031736176 0.057537179
-0.042469777 -0.032370273 0.057552513
-0.038602587 -0.033632848 0.05752638
-0.021312326 -0.034202829 0.057507925
-0.017372962 -0.032734301 0.057566732
-0.013461865 -0.031252641 0.057575997
-0.050354876 -0.025731791 0.057961106
-0.047225121 -0.027127024 0.05752812
-0.043788802 -0.028549012 0.05752603
-0.015512693 -0.029337965 0.057252143
-0.01203416 -0.028215069 0.057443228
-0.0080503402 -0.026711091 0.057524998
-0.0044123544 -0.025454246 0.057091881
-0.051665176 -0.02195747 0.057566375
-0.048592813 -0.023187222 0.057530303
-0.010192829 -0.024672342 0.055773709
-0.0067245425 -0.023767928 0.057556704
-0.0026399666 -0.022349762 0.057541739
0.0013341845 -0.020991027 0.057428766
-0.055260241 -0.016668137 0.057172254
-0.052782509 -0.01770886 0.057607684
-0.049791154 -0.019711806 0.057392552
-0.00084922713 -0.019078262 0.05764867
0.0028342626 -0.017781429 0.057553012
0.0069659189 -0.016501551 0.0574909
0.010145159 -0.016152048 0.059082888
-0.055266753 -0.011585913 0.057037815
-0.053181659 -0.012669167 0.057617348
0.0044493293 -0.014542908 0.057673302
0.0080760708 -0.013348527 0.057521112
0.012237787 -0.011982152 0.057555534
0.015910605 -0.010724304 0.057430632
-0.055266846 -0.0092668207 0.057841104
-0.052259833 -0.0075443597 0.057436373
-0.049052842 -0.0062123965 0.057458602
0.0098199369 -0.0099489801 0.056531567
0.013396703 -0.0086293519 0.057554308
0.017380284 -0.0074546277 0.057500329
0.021259891 -0.0059673944 0.057420816
-0.051580906 -0.002943537 0.057635225
-0.047596619 -0.0024715213 0.057540037
-0.043694958 -0.0010552872 0.057414949
0.018676972 -0.0039050954 0.057340503
0.022654455 -0.0027267747 0.057562385
0.026641516 -0.001411724 0.057505358
-0.046800748 0.0010883986 0.057551522
-0.042470854 0.0024264401 0.057525858
-0.03859894 0.003691517 0.057635143
0.023886887 0.00080250326 0.05772185
0.027822871 0.0020949063 0.057481822
0.03207111 0.0030036834 0.057503961
0.035877924 0.0045107272 0.05773228
-0.040882338 0.0055568875 0.057335149
-0.037064355 0.0071010184 0.057549775
-0.033232708 0.0086096348 0.057712208
-0.02953461 0.0097599002 0.057499159
0.029063927 0.0056571104 0.057635345
0.032921385 0.0071683531 0.057515536
0.036575425 0.0078460416 0.057469115
-0.03537564 0.010278382 0.057310425
-0.031765871 0.011890177 0.057483822
-0.027887916 0.013250456 0.057486761
-0.024276625 0.014494201 0.057829019
0.034469936 0.01127136 0.05755794
0.036759395 0.012493534 0.057462003
-0.026610773 0.016596222 0.057497006
-0.022616966 0.017815676 0.057456713
-0.018827986 0.018993437 0.057581343
0.03466025 0.019296424 0.058254227
0.037005793 0.017706264 0.057399198
-0.02148064 0.020976914 0.057584196
-0.017430479 0.022406109 0.057529751
-0.013488856 0.023619501 0.057511222
-0.0098056439 0.024806842 0.057773724
0.029525848 0.024905415 0.058520313
0.033418335 0.023240043 0.057542969
0.036064032 0.021875272 0.057328504
-0.015779126 0.025579598 0.057333037
-0.012177497 0.026859477 0.057526156
-0.0080868006 0.028243473 0.057618562
-0.0040192772 0.029433107 0.057665892
0.028552651 0.028309081 0.057580017
0.031896058 0.026953232 0.057342608
0.035394724 0.025631085 0.057237882
-0.010800618 0.030156603 0.057720933
-0.0068486491 0.031119803 0.057577763
-0.0026664326 0.032604005 0.057472207
0.0012805254 0.034072611 0.057611052
0.023883868 0.033692643 0.057656497
0.027451307 0.032433238 0.057568382
0.030456975 0.031127606 0.057213858
-0.00088989903 0.035836507 0.057562139
0.0026781927 0.037255101 0.057578374
0.0068764375 0.038721349 0.057519972
0.011745119 0.03972042 0.057563614
0.018540472 0.039088573 0.057418995
0.022593804 0.037584003 0.057548437
0.026110401 0.036748953 0.057436798
0.0038940453 0.040543497 0.057583872
0.007883315 0.041240174 0.057404134
0.012541607 0.041590255 0.057425998
0.017571036 0.04163285 0.05747252
0.021918863 0.041129068 0.057615507
0.025233276 0.040213171 0.055882338
-0.036835384 -0.040303458 0.062387317
-0.032638021 -0.040388592 0.062808163
-0.02718587 -0.040339958 0.062606208
-0.024227118 -0.040347945 0.06235721
-0.041389637 -0.036350854 0.062711388
-0.037404694 -0.037224393 0.062391594
-0.032594908 -0.038144607 0.062493261
-0.027293466 -0.038122956 0.062503882
-0.022469755 -0.037116066 0.062484216
-0.018864455 -0.036180753 0.062585473
-0.04590106 -0.031595375 0.062642261
-0.042415239 -0.032352835 0.062444396
-0.038546037 -0.033638533 0.062392659
-0.021308169 -0.03402929 0.062722608
-0.017408976 -0.032761578 0.062453706
-0.013346542 -0.031223986 0.062371083
-0.050378714 -0.025554078 0.062314209
-0.047257755 -0.027100928 0.062513001
-0.043632951 -0.028547376 0.06255801
-0.015751727 -0.029365785 0.062764518
-0.012003121 -0.028191885 0.06243461
-0.0081163496 -0.026638024 0.062406626
-0.0045143371 -0.025348339 0.061766051
-0.05166607 -0.021966191 0.062433578
-0.048532359 -0.023168268 0.06251023
-0.0066857329 -0.02371813 0.062504679
-0.0026845813 -0.022292018 0.062398128
0.001168729 -0.020948989 0.062252883
-0.055141859 -0.016147131 0.063180551
-0.052785583 -0.017680798 0.062523723
-0.049704067 -0.019452129 0.062248856
-0.0011132554 -0.019027773 0.062544428
0.0027803509 -0.017868936 0.062431242
0.006901925 -0.016453572 0.062571831
0.010310141 -0.015163491 0.064523607
-0.05519066 -0.011654131 0.063304521
-0.053137746 -0.012507015 0.062480159
0.0042125555 -0.014688532 0.062761158
0.0081315087 -0.01335684 0.062332407
0.012181271 -0.011969552 0.062526636
0.015936298 -0.0106154 0.062319715
-0.055176515 -0.0095921438 0.062214799
-0.052164044 -0.0076322677 0.062481936
-0.048880216 -0.0061945664 0.062471446
0.013505297 -0.0085952971 0.062383834
0.017397406 -0.0073696445 0.062490001
0.021327037 -0.0058969841 0.062385373
-0.051700193 -0.0031662262 0.06249287
-0.047617219 -0.0024490454 0.062509745
-0.043812875 -0.0012196619 0.062471554
0.018649364 -0.0039072353 0.062463403
0.022560811 -0.0027458833 0.062411997
0.026488688 -0.0014096752 0.062479179
-0.046943936 0.0010562864 0.062461469
-0.042393733 0.0024004558 0.06238183
-0.038488775 0.003630429 0.062550262
-0.034999199 0.0049390011 0.064546347
0.023993395 0.00082451594 0.062549986
0.027770082 0.0021568695 0.062449828
0.032145366 0.002874478 0.062460322
0.035926923 0.004338291 0.062786326
-0.040904466 0.0055485107 0.062631033
-0.037004281 0.0070908237 0.06239415
-0.03304708 0.0085225329 0.062557936
-0.029547516 0.0097147105 0.062603757
0.029125884 0.0056437482 0.062764794
0.032947719 0.0071162917 0.062458638
0.036625028 0.0077945874 0.062534429
-0.035384014 0.010236665 0.062419076
-0.031774916 0.011872031 0.062381715
-0.027859658 0.013161812 0.062514998
-0.023949498 0.014510562 0.062338173
0.03449969 0.010909857 0.062593237
0.036884531 0.01247213 0.062460478
-0.030070268 0.015196795 0.064524896
-0.026596982 0.016595265 0.062387805
-0.022644881 0.017776454 0.062412217
-0.018886924 0.018869502 0.062535003
0.034557749 0.019339874 0.061119229
0.036909658 0.01767138 0.062420815
-0.021437414 0.021103494 0.062484648
-0.017446602 0.02234561 0.062408451
-0.013489441 0.023703955 0.062540263
-0.0099209659 0.024736799 0.060807992
0.033511005 0.023284011 0.062435448
0.036048993 0.02171321 0.062466815
-0.015925333 0.025584335 0.062335182
-0.012149574 0.026719339 0.062366284
-0.0080870045 0.028132604 0.062452037
-0.0043932758 0.029414767 0.062421065
0.028526083 0.028234608 0.062352963
0.031761464 0.026979402 0.062425595
0.035141632 0.025217215 0.062279809
-0.010782205 0.030092444 0.060690481
-0.0067410171 0.031142682 0.062326036
-0.0026725763 0.032627355 0.062499449
0.0011948355 0.033945695 0.062430415
0.023834962 0.033619922 0.062354516
0.027463323 0.032466374 0.062469874
0.030373536 0.031129127 0.062420283
-0.00090684654 0.035705492 0.062587515
0.0027514445 0.037227016 0.062499508
0.0069664954 0.038622588 0.062457219
0.012028444 0.039687973 0.062702395
0.018237477 0.039044656 0.062535092
0.022621373 0.037500732 0.062561952
0.026087809 0.036655653 0.062467936
0.0039902441 0.04046296 0.062641367
0.0078448653 0.041108895 0.062591493
0.012604879 0.041546356 0.062466316
0.017574744 0.041534342 0.062283136
0.021726223 0.041280799 0.062546119
-0.036794432 -0.040292889 0.067354672
-0.032865178 -0.040483858 0.067504711
-0.027437389 -0.040413268 0.067382313
-0.024437454 -0.040280949 0.066985823
-0.041450322 -0.036548976 0.067351796
-0.037384283 -0.037175991 0.067330264
-0.032578152 -0.038176861 0.067400448
-0.027225582 -0.038093943 0.067444056
-0.022650335 -0.037172828 0.067384735
-0.018831136 -0.03601915 0.067307383
-0.045891929 -0.031566951 0.0675501
-0.042539254 -0.032430455 0.067390032
-0.038621932 -0.033762854 0.067346022
-0.021354321 -0.033858284 0.067528121
-0.017352646 -0.032636788 0.067365788
-0.013542593 -0.031096496 0.067378931
-0.05041023 -0.025805114 0.068471834
-0.047206603 -0.027211739 0.067398109
-0.043621566 -0.028523091 0.067472033
-0.015675705 -0.029312408 0.067537919
-0.012073583 -0.028277099 0.067460872
-0.0079856515 -0.026442911 0.067401603
-0.0044251294 -0.025358159 0.067592986
-0.051580407 -0.021947147 0.067522369
-0.048639361 -0.023287257 0.06742879
-0.0065700938 -0.023610136 0.067414299
-0.0026988632 -0.022263534 0.067403041
0.0012314143 -0.020843169 0.06729123
-0.055206589 -0.01653702 0.066481248
-0.052721847 -0.017745081 0.067379139
-0.04976368 -0.019425651 0.06818267
-0.0011531339 -0.019108227 0.06746047
0.0028058244 -0.01776322 0.06736616
0.0068698423 -0.016423607 0.067482509
0.010257339 -0.015020351 0.065796465
-0.055253465 -0.012161477 0.067072965
-0.053066034 -0.012530915 0.067384303
0.0043267966 -0.014779079 0.067110524
0.0081037804 -0.013280166 0.067415372
0.012078164 -0.011976744 0.067483142
0.015643923 -0.010582936 0.067241542
-0.05527278 -0.0096185384 0.067299247
-0.05215282 -0.0076470529 0.067386866
-0.048819024 -0.006431703 0.067530774
0.0095716165 -0.0099609019 0.069272906
0.013292108 -0.008466796 0.067540407
0.017399689 -0.0072987857 0.067435294
0.021224968 -0.0058263387 0.067325734
-0.051864583 -0.0033859557 0.067416787
-0.047535088 -0.0025805018 0.067418665
-0.043608095 -0.0012784409 0.067439884
0.018492166 -0.0040103607 0.067430183
0.022549957 -0.002730194 0.067445576
0.026582416 -0.0012872288 0.067385778
0.030092131 -0.00026490347 0.067559019
-0.04661081 0.0010476961 0.067327
-0.04234213 0.0023414379 0.067434788
-0.038227636 0.0036063646 0.067500763
-0.034649126 0.0047865747 0.069884107
0.023925548 0.00073303096 0.067250907
0.027757863 0.0021081166 0.067493163
0.032051824 0.0029203882 0.067445375
0.035930231 0.0038554315 0.06766703
-0.041183714 0.0056478237 0.06746076
-0.037068982 0.0070857727 0.067396432
-0.03308282 0.0083566485 0.06757737
-0.029378312 0.0098164184 0.067129821
0.029087577 0.0057489504 0.067422651
0.032959908 0.0071079768 0.0674164
0.036490772 0.0078199338 0.067383282
-0.035494618 0.010433507 0.067192987
-0.031840991 0.011768287 0.067375302
-0.027889807 0.013095077 0.067401849
-0.024204466 0.014418314 0.067395523
0.034258537 0.010515464 0.067365438
0.036855143 0.01259625 0.067422897
-0.026424181 0.016430551 0.067272507
-0.022603787 0.017693898 0.067426927
-0.018769728 0.019057406 0.067479447
0.034901977 0.018402312 0.065601818
0.036878925 0.0175405 0.067400083
-0.021424366 0.020976966 0.067301102
-0.017383061 0.02234857 0.067386881
-0.013524599 0.02377416 0.067471199
0.033452336 0.023256579 0.067500174
0.03605222 0.021761922 0.067532234
-0.01581382 0.025585007 0.06708163
-0.012076505 0.026660698 0.067355096
-0.0080685513 0.028233338 0.067342497
-0.0042755143 0.029342989 0.067423098
0.02861122 0.02830196 0.0672855
0.03180936 0.027030092 0.067429729
-0.0067909667 0.031006556 0.06742765
-0.0025887766 0.03251341 0.067427732
0.0013759685 0.033986252 0.067552008
0.023757884 0.03369176 0.067452691
0.027337249 0.032388732 0.067481928
0.030407719 0.031412859 0.067181528
-0.00099387777 0.035640247 0.06744726
0.0027175006 0.03719867 0.067394927
0.00700422 0.038598947 0.067485482
0.011773556 0.039547857 0.067714624
0.018456804 0.039030645 0.067304738
0.022647066 0.037494369 0.067503825
0.026214227 0.036634427 0.067380056
0.0043212627 0.040466059 0.06772121
0.0079059219 0.041248992 0.067447811
0.012538765 0.041424766 0.067508057
0.01770797 0.04158482 0.067296207
0.021680932 0.041411258 0.067320906
-0.036936458 -0.040507976 0.07228902
-0.032928005 -0.04046613 0.072526202
-0.026736004 -0.040307887 0.072462127
-0.024517519 -0.040266961 0.070890039
-0.041280042 -0.036697075 0.072448999
-0.037433576 -0.037221573 0.072453856
-0.032600388 -0.038147788 0.07246466
-0.027237125 -0.038106725 0.072441593
-0.022622824 -0.037088882 0.072474793
-0.01891795 -0.036007993 0.072416745
-0.045953169 -0.031416699 0.072358474
-0.042539891 -0.032438982 0.072388873
-0.038729142 -0.033856053 0.072384574
-0.021380337 -0.033954378 0.072482899
-0.017409779 -0.03264901 0.07239417
-0.013518072 -0.031054474 0.072445475
-0.050364021 -0.025879301 0.072224304
-0.047150981 -0.027128411 0.072362594
-0.04381033 -0.02839469 0.072430253
-0.016049253 -0.029356148 0.07257802
-0.012113468 -0.028266685 0.072396629
-0.0081887525 -0.026525009 0.072440617
-0.0044143768 -0.025165496 0.072222061
-0.051511168 -0.022001421 0.072498001
-0.048570607 -0.023164235 0.072466843
-0.0066259066 -0.023712344 0.072417125
-0.0027147725 -0.022126412 0.072421528
0.0010076617 -0.020703519 0.072112918
-0.055238806 -0.017108314 0.074921928
-0.052545927 -0.017694162 0.072418727
-0.049671695 -0.019214509 0.073011182
-0.0013141598 -0.018945526 0.072572075
0.0027570599 -0.017705506 0.07251478
0.006750009 -0.016372288 0.072340056
0.010160208 -0.015501237 0.072653919
-0.055252284 -0.012124176 0.072922833
-0.052981239 -0.012478189 0.072559327
0.0043831626 -0.014586072 0.072613776
0.0080945538 -0.013299227 0.072433792
0.012058461 -0.011850837 0.072395235
0.015672723 -0.01037649 0.072275877
-0.055201888 -0.0096970238 0.072157361
-0.05213796 -0.0075932438 0.072433062
-0.048760127 -0.0064141992 0.072492003
0.0097041251 -0.0097660217 0.070051283
0.013263751 -0.0086311204 0.072368905
0.017264454 -0.0072718998 0.07238654
0.021132292 -0.0058952388 0.072401419
-0.055067305 -0.0047663739 0.073514864
-0.051707443 -0.003307563 0.072514839
-0.04758833 -0.0025347306 0.072416797
-0.043548767 -0.0012620406 0.072572693
0.018616049 -0.0038615896 0.072576992
0.022548214 -0.0026887159 0.072426684
0.026684431 -0.0012294237 0.072411984
-0.046627425 0.0010238019 0.072499558
-0.042385969 0.0023468053 0.072444282
-0.038232524 0.0035937028 0.072496422
-0.034813181 0.0045263162 0.071029231
0.024073459 0.00072256289 0.07275483
0.027779011 0.0019966424 0.07246913
0.032131385 0.0029133956 0.072513327
0.035876162 0.003788515 0.07235837
-0.040921479 0.0056539113 0.072317511
-0.037047442 0.0070794411 0.072379209
-0.033021536 0.0082686916 0.072418042
-0.029443314 0.0096571781 0.072076209
0.029153934 0.0056174467 0.072452322
0.033017136 0.0071002925 0.072389223
0.036415104 0.0079550669 0.072486706
-0.035359193 0.01037516 0.072033592
-0.031833123 0.011725619 0.072414048
-0.027834067 0.013057598 0.072469287
-0.02384237 0.014340059 0.072552212
0.034365237 0.010843293 0.072536908
0.036987521 0.012591518 0.072457314
-0.026557108 0.016216995 0.072452836
-0.022527913 0.0176514 0.072470009
-0.018515943 0.018825663 0.072477043
0.037069496 0.017547527 0.072514251
-0.021160508 0.020911355 0.07246504
-0.017325051 0.022277048 0.072430916
-0.01348279 0.023559261 0.072429225
0.033612952 0.023324929 0.072422147
0.036043741 0.021841099 0.07247255
-0.015588585 0.025453597 0.072459631
-0.012128196 0.026543392 0.072475001
-0.0080596032 0.028141662 0.072376139
-0.0041399831 0.029432314 0.072536044
0.02873648 0.028548626 0.072397359
0.031888507 0.027107671 0.072464049
-0.0065784031 0.031071732 0.072254382
-0.0025657369 0.032572825 0.07242579
0.0014784785 0.03396764 0.072495289
0.0052639283 0.034897417 0.072749741
0.023885151 0.033704408 0.072452754
0.02745524 0.032430805 0.072440945
0.030511791 0.031043272 0.072385341
-0.00098937238 0.035561264 0.072230577
0.002714426 0.037173077 0.072431751
0.0070275976 0.038485281 0.072511822
0.012258424 0.039697718 0.072745174
0.018287241 0.039026849 0.072471358
0.02260985 0.037556108 0.072487235
0.026376814 0.036514845 0.072517663
0.0043862658 0.040540218 0.072398096
0.0078194728 0.041262876 0.07242085
0.012443412 0.041399602 0.072454005
0.017674835 0.041510232 0.072360642
0.021480314 0.041339818 0.072356664
-0.037037496 -0.040344846 0.077328272
-0.032777801 -0.040349662 0.077649064
-0.026527738 -0.040248122 0.077587366
-0.024748329 -0.040238097 0.077569626
-0.041418165 -0.036779433 0.077505969
-0.037387181 -0.037268478 0.077459015
-0.032589465 -0.03816874 0.077502929
-0.027251342 -0.038036287 0.077499218
-0.022669438 -0.037112262 0.077429764
-0.019067502 -0.035980418 0.077432059
-0.046105739 -0.031512734 0.07754679
-0.042481083 -0.032376435 0.077443868
-0.0386892 -0.033791356 0.077523917
-0.021488192 -0.034040049 0.07753472
-0.017472623 -0.032564752 0.07742998
-0.01366269 -0.031062158 0.077478565
-0.05038422 -0.025820762 0.077058129
-0.047141485 -0.02714205 0.0774737
-0.043771908 -0.028453832 0.077444933
-0.015809648 -0.02925422 0.077424906
-0.012091846 -0.028259642 0.077530876
-0.0080650877 -0.026399795 0.077453293
-0.0047867792 -0.025431611 0.078117117
-0.051407453 -0.021891288 0.077479944
-0.048550852 -0.022991268 0.077542484
-0.0066216057 -0.023573464 0.077547275
-0.0028043173 -0.022093864 0.077435896
0.0008656719 -0.020794181 0.077400275
-0.055042535 -0.015080757 0.076972999
-0.052408453 -0.017499018 0.077498533
-0.049568981 -0.019196924 0.077990383
-0.0013922265 -0.018851725 0.077563897
0.0025973825 -0.017645573 0.077457093
0.0063987351 -0.016302841 0.077511981
0.010107121 -0.0154485 0.075284488
-0.055308376 -0.012181247 0.076764859
-0.05293151 -0.01235078 0.077495605
0.003854953 -0.014564138 0.077546664
0.0080905482 -0.013361809 0.077440307
0.012058539 -0.01168687 0.077532336
0.015557689 -0.010349098 0.07722684
-0.055176485 -0.0095423078 0.076983437
-0.052100684 -0.0077399807 0.07748878
-0.048838809 -0.0063953185 0.077568322
0.0098861614 -0.009984564 0.075325206
0.013300335 -0.0085462267 0.077559747
0.017344089 -0.0071967882 0.077498354
0.021066766 -0.0057801628 0.077547371
-0.051528331 -0.0033553434 0.077397391
-0.04755009 -0.0025349341 0.077436723
-0.043530811 -0.001314153 0.07746771
-0.03997843 -0.00010847257 0.077390693
0.018648457 -0.0040105591 0.077494778
0.022473065 -0.0026526828 0.077462018
0.026714412 -0.0011581738 0.077482894
0.030109704 -0.00032538967 0.077143401
-0.04647129 0.0011206078 0.077441595
-0.04235027 0.0022973099 0.077448487
-0.038340345 0.0034393382 0.077510498
-0.034657959 0.0049472721 0.07678853
0.023882035 0.00099455845 0.077626064
0.027768863 0.0020040933 0.077551991
0.032081131 0.0028953177 0.077440105
0.035703018 0.003881633 0.077242278
-0.040580127 0.0055447877 0.077421263
-0.036943998 0.0069255084 0.077451199
-0.032993909 0.0082470216 0.077464491
-0.029145766 0.009579449 0.07727094
0.029144272 0.0054897978 0.07790979
0.032962341 0.0071235546 0.077476449
0.036516961 0.0078680618 0.077387825
-0.03537146 0.010150803 0.077386744
-0.031769194 0.01169048 0.077388063
-0.027761523 0.012951514 0.07756491
-0.023840943 0.014084443 0.077724159
0.034350447 0.010707675 0.077301219
0.037030373 0.012536198 0.077458352
-0.026448186 0.016219655 0.077377364
-0.022552053 0.017601285 0.077524751
-0.018662952 0.018758548 0.07755179
0.034718193 0.01965919 0.077393979
0.037114333 0.017681422 0.077506445
-0.020887595 0.020901259 0.077331215
-0.017327525 0.022120744 0.077475056
-0.013447938 0.023508942 0.077456713
0.03354897 0.02329619 0.077524692
0.036148369 0.021829454 0.077420592
-0.015544993 0.025259078 0.077396676
-0.012035021 0.026425947 0.077493176
-0.0080665667 0.028106034 0.0774597
-0.0042749704 0.029385893 0.077469021
0.028663626 0.028521378 0.077597223
0.031890735 0.027023517 0.077463925
-0.0064389938 0.030980801 0.077402577
-0.0025596151 0.032516107 0.077425227
0.0014487122 0.033839472 0.077569082
0.02381948 0.033672787 0.077532969
0.027412841 0.032443363 0.077431493
0.030533958 0.03106343 0.07743492
-0.001060814 0.035430126 0.077299371
0.0028423127 0.037055764 0.077459276
0.0071593393 0.038422089 0.077485956
0.01230344 0.039592814 0.077550963
0.018024387 0.039037123 0.077546209
0.022519818 0.03753208 0.07740283
0.026428923 0.036703628 0.077563018
0.0045038299 0.040602021 0.077175505
0.0078387903 0.041172333 0.077299953
0.01248971 0.041312691 0.07745409
0.017639931 0.041481934 0.077553138
0.021680277 0.041246302 0.077471279
0.025088336 0.040326748 0.079893447
-0.040416088 -0.040074218 0.082264572
-0.037105784 -0.040529206 0.082592733
-0.033026349 -0.040414207 0.082410313
-0.026825825 -0.040143374 0.082420103
-0.041566376 -0.036686484 0.082481973
-0.037448563 -0.03736252 0.082513906
-0.032591194 -0.038275454 0.082512848
-0.027248435 -0.038130794 0.082540683
-0.022697181 -0.037022684 0.082540676
-0.01910631 -0.035894793 0.082519874
-0.046025075 -0.031424735 0.082355618
-0.042533394 -0.03238982 0.082564741
-0.038714029 -0.033846401 0.082421951
-0.021310087 -0.033947755 0.08255779
-0.017477326 -0.032596175 0.082553409
-0.013612275 -0.030990588 0.082497656
-0.050481308 -0.02576598 0.082612701
-0.047200844 -0.027200589 0.082495376
-0.043916926 -0.028304381 0.08259853
-0.015646053 -0.029255318 0.082260996
-0.012094805 -0.028151553 0.082572222
-0.0080221733 -0.026457487 0.08253555
-0.0047831684 -0.025333602 0.08276958
-0.051338751 -0.021840388 0.082574561
-0.04849815 -0.023170231 0.082553677
-0.010758752 -0.024946786 0.084200896
-0.006748592 -0.023537675 0.082585469
-0.002782098 -0.022141399 0.082512118
0.00087670545 -0.020753739 0.082176216
-0.05237041 -0.017625192 0.082519703
-0.049520057 -0.019254858 0.082076654
-0.00146888 -0.018951641 0.08251249
0.0025745486 -0.017649751 0.082583457
0.0064775855 -0.016155751 0.082477495
-0.055427153 -0.013534464 0.080063254
-0.052866291 -0.012466355 0.082510389
0.0040190271 -0.014582961 0.082075447
0.0080769723 -0.013227503 0.082518987
0.012085187 -0.011762126 0.082548596
0.015520319 -0.010249133 0.082438216
-0.055037253 -0.0098016625 0.080798589
-0.052217156 -0.0076955315 0.082504503
-0.048765015 -0.0063231597 0.082517877
0.0098422328 -0.009470243 0.083629526
0.01307034 -0.0086776167 0.082651876
0.017306296 -0.0071856147 0.082514688
0.020913258 -0.0057205264 0.08249741
-0.051454581 -0.0031868867 0.082665548
-0.047495432 -0.0025313243 0.082555234
-0.043430917 -0.0013745908 0.082678929
0.018875085 -0.0038890848 0.082571521
0.022482026 -0.0026380501 0.082551815
0.026768532 -0.0011900857 0.082584247
0.030524921 -0.00010662452 0.083672464
-0.046511713 0.0012119832 0.08263123
-0.042360477 0.0022926556 0.082561523
-0.038149059 0.003473225 0.082552321
-0.034681708 0.0047225882 0.083392188
0.023763888 0.00075287261 0.082410477
0.0278084 0.0020440393 0.08249934
0.032051716 0.0028818757 0.082472704
0.035578635 0.0041433284 0.082334422
-0.040688757 0.0056037852 0.082673155
-0.036905874 0.0069371322 0.082498141
-0.032999564 0.008287889 0.082575731
-0.029472517 0.0094033871 0.082404584
0.029109895 0.0057656094 0.082384542
0.032948405 0.0070806448 0.082532339
0.036586326 0.0077451239 0.082558893
-0.035282057 0.010384441 0.08142183
-0.031659704 0.011507262 0.08240208
-0.027687211 0.012998576 0.082502395
-0.024027236 0.014179948 0.082670212
0.034489833 0.010900266 0.08227253
0.03690026 0.012446421 0.082564943
-0.026319038 0.016238224 0.082552508
-0.022528931 0.017609065 0.08258342
-0.018585067 0.018866567 0.082542978
0.034609359 0.019908439 0.081902847
0.037018441 0.017747073 0.082526378
-0.020859597 0.020615457 0.082426891
-0.017287327 0.021979488 0.082575716
-0.01332723 0.023630066 0.082577817
-0.0097229909 0.024940237 0.083756514
0.033501457 0.023187585 0.082523875
0.035978008 0.021914616 0.0824145
-0.015807789 0.025283698 0.083286867
-0.011953517 0.026330225 0.082476772
-0.0080415523 0.028033635 0.082534231
-0.0041390555 0.029414004 0.082466356
0.028485723 0.028440204 0.082603849
0.031862814 0.026987521 0.082445517
0.035152331 0.025510442 0.080695912
-0.0063687111 0.030868722 0.082489908
-0.0025606453 0.032468721 0.082549557
0.0015183568 0.033873316 0.082458302
0.023895467 0.033548772 0.082626574
0.02737676 0.032367237 0.082521245
0.030517364 0.030976979 0.082442082
-0.00072077609 0.035509281 0.082681216
0.0028534445 0.037059247 0.082540087
0.0072281766 0.038366579 0.082632139
0.012133135 0.039426066 0.08257401
0.018014908 0.038967926 0.082623318
0.022514207 0.037473865 0.082532428
0.026488448 0.036712755 0.082448669
0.0043914039 0.040490627 0.082455598
0.0079895547 0.041111615 0.082457498
0.012434867 0.041263413 0.08254306
0.01761413 0.041347038 0.082637973
0.021479674 0.041095536 0.082417294
-0.036693282 -0.040454473 0.087707564
-0.033021897 -0.040424701 0.087465987
-0.02725585 -0.040260501 0.08769387
-0.024909921 -0.040251292 0.087594971
-0.041746028 -0.036653403 0.087480351
-0.037380692 -0.037310097 0.087653667
-0.032596808 -0.038362242 0.087506287
-0.02718818 -0.038200252 0.087552264
-0.022703346 -0.037037797 0.087606892
-0.018985257 -0.035845667 0.087362275
-0.046046048 -0.031679861 0.087714612
-0.042588804 -0.032524675 0.0875763
-0.038845841 -0.033956412 0.087414265
-0.021372156 -0.034069259 0.087582096
-0.017454466 -0.032612193 0.087596916
-0.013731774 -0.031054059 0.087557048
-0.050488736 -0.025857881 0.088120565
-0.047252547 -0.027216559 0.087605596
-0.044059321 -0.028552871 0.087472513
-0.015826207 -0.029367536 0.087181248
-0.012179486 -0.028146673 0.087612957
-0.0081420215 -0.026490275 0.087618165
-0.0049295453 -0.025133681 0.085761353
-0.051462755 -0.021996552 0.087564923
-0.048575908 -0.023111647 0.087496005
-0.006832967 -0.023462061 0.087558351
-0.0028543202 -0.022063855 0.087603331
0.00077792705 -0.020621218 0.087681316
-0.055115979 -0.016059894 0.089472592
-0.05246114 -0.017763576 0.087658234
-0.049793854 -0.019365169 0.087957941
-0.0015085415 -0.019015394 0.087574154
0.0026126804 -0.017680533 0.087553136
0.0065043434 -0.016123198 0.087543659
-0.05531963 -0.012224076 0.088274181
-0.052911878 -0.012568591 0.087517321
0.0040356256 -0.014702319 0.087493256
0.0080705909 -0.013270433 0.087630875
0.012125588 -0.011713319 0.087561771
0.015478378 -0.010333967 0.087518506
-0.055001259 -0.00983846 0.087836847
-0.05227524 -0.0077199903 0.087513074
-0.048713822 -0.0064235711 0.08767657
0.0097096683 -0.0097253658 0.088625491
0.013231841 -0.0086623244 0.08748854
0.017292311 -0.0071928604 0.08756844
0.020969346 -0.0056111426 0.087539248
-0.051636469 -0.0033563385 0.087468542
-0.047518373 -0.002511662 0.08758226
-0.043441255 -0.0015261177 0.087591358
0.018662615 -0.0039588856 0.087441131
0.022418169 -0.0026791501 0.087559581
0.026853917 -0.0011953721 0.08759588
0.030787835 -0.00021631403 0.087096415
-0.046420265 0.0012566177 0.08757247
-0.042313799 0.0022751985 0.087531298
-0.038204029 0.0033927541 0.087524287
-0.034780111 0.0046050055 0.089321107
0.024206324 0.00087720796 0.087559953
0.027868981 0.0021222364 0.087546192
0.032068703 0.0029759682 0.087573625
0.03580533 0.004372851 0.087474585
-0.040571321 0.005515886 0.087465882
-0.036892131 0.0068516261 0.087511547
-0.033052329 0.0082415808 0.087683566
-0.029359341 0.0095259873 0.087551638
0.029407661 0.0056115463 0.088023476
0.032929972 0.0070813419 0.08766792
0.03682055 0.0076612113 0.08761441
-0.035070509 0.010428121 0.086905666
-0.031704806 0.011392673 0.087664016
-0.027708972 0.012950085 0.087605931
-0.023817401 0.014154035 0.087650798
0.034543626 0.010859247 0.087192602
0.036834639 0.01244285 0.087594129
-0.026199967 0.016045608 0.087515056
-0.022420267 0.017485969 0.087597758
-0.018529341 0.018746287 0.087655373
0.034776308 0.019830473 0.087563269
0.037210517 0.017635476 0.087515861
-0.020817803 0.020629887 0.08741267
-0.017191825 0.021962738 0.087528549
-0.013291499 0.023475161 0.08763171
-0.0095738638 0.024633693 0.088676721
0.029886408 0.024739211 0.087945297
0.033463623 0.023160661 0.087617032
0.036085639 0.021735124 0.087638117
-0.015486135 0.025296023 0.087031327
-0.011916999 0.026360428 0.087519407
-0.007972518 0.027960286 0.087663509
-0.0041903853 0.029187154 0.087235697
0.028623499 0.028346354 0.087557688
0.031829245 0.027085425 0.087534018
-0.0063653989 0.030917481 0.087527275
-0.0025039511 0.032423705 0.087578036
0.0013186546 0.033957534 0.087582417
0.024007617 0.033690736 0.087475054
0.027449006 0.032385387 0.087606519
0.030603653 0.031001061 0.08772812
-0.00055529509 0.03559259 0.087380521
0.0029119966 0.037026312 0.087541997
0.0071975896 0.038342122 0.087604955
0.012250583 0.039466001 0.087453164
0.018122857 0.038883921 0.087433986
0.022494031 0.03750319 0.087595016
0.026526919 0.036736604 0.087588608
0.0043100133 0.040335197 0.087316059
0.0079080239 0.041124959 0.087525949
0.012469659 0.041347299 0.087712951
0.01746154 0.041401926 0.087694839
0.021729819 0.040889751 0.087791763
-0.036940448 -0.040529598 0.092585981
-0.033513259 -0.040500253 0.092758469
-0.027459536 -0.040341727 0.092990145
-0.024445929 -0.040182039 0.093998626
-0.045247495 -0.035275646 0.094217151
-0.041677531 -0.036529001 0.092373438
-0.037418991 -0.037407223 0.092578828
-0.032605622 -0.038344335 0.092583388
-0.0272335 -0.038168907 0.092515975
-0.022715727 -0.037037253 0.092584215
-0.019089665 -0.035827 0.09254393
-0.045959346 -0.031938627 0.092506014
-0.042557672 -0.032537252 0.092509262
-0.038919531 -0.033934642 0.092550963
-0.021375217 -0.033999402 0.092575654
-0.017357545 -0.032585982 0.092612259
-0.013688017 -0.030934632 0.092601009
-0.050627153 -0.025914837 0.092496857
-0.047277164 -0.027297961 0.092565536
-0.044060737 -0.028751472 0.092562921
-0.015840489 -0.029279443 0.092554241
-0.012128118 -0.027945993 0.092610031
-0.0080615059 -0.026509039 0.092633687
-0.0042065885 -0.025210734 0.09193743
-0.051469687 -0.022142153 0.092583723
-0.048701569 -0.023110235 0.092695057
-0.010222939 -0.024384867 0.093566716
-0.0068638287 -0.023395645 0.092597596
-0.0029610863 -0.022040568 0.092559174
0.00073967379 -0.020627715 0.092548043
-0.055323873 -0.016077798 0.092774376
-0.05255305 -0.017671814 0.092624262
-0.049791027 -0.01939158 0.092848212
-0.0014843118 -0.018851513 0.092490926
0.0026324661 -0.017625814 0.092669211
0.0066524534 -0.016142929 0.092335463
-0.055260487 -0.012847181 0.092805587
-0.052846987 -0.012438769 0.092599884
0.0045877662 -0.014480291 0.09275835
0.0080150729 -0.01316728 0.092701592
0.012062995 -0.01172787 0.092434883
0.0155375 -0.010528915 0.092398576
-0.055154424 -0.0069904639 0.091280393
-0.052266505 -0.0076532369 0.092548773
-0.048701644 -0.0064225416 0.092633136
0.0096996333 -0.009570919 0.092386864
0.013175243 -0.0085025672 0.092472836
0.017240567 -0.007210623 0.092595659
0.021150185 -0.0055942484 0.092661224
-0.051262606 -0.0032303764 0.092364274
-0.047493856 -0.0026010026 0.092520177
-0.043373466 -0.001512266 0.092651919
0.018440343 -0.0039826469 0.092604518
0.022515189 -0.0026562063 0.092554674
0.026739333 -0.0011713104 0.092528455
0.030136365 -0.00073833321 0.092800602
-0.046270579 0.0011552541 0.092550017
-0.042320527 0.0022974748 0.092562832
-0.038095806 0.003250526 0.09266194
-0.034425106 0.0046298774 0.093575224
0.023975501 0.00084766961 0.092247874
0.027743345 0.002088171 0.092553765
0.032101527 0.003044703 0.092542246
0.035794523 0.0043702577 0.092928663
-0.040835816 0.0054488168 0.092240207
-0.036901195 0.0068491278 0.092532031
-0.032911967 0.0080985595 0.092531554
-0.029168274 0.0093989037 0.092933863
0.029196681 0.0054745995 0.092672139
0.03288715 0.0071269511 0.092600696
0.036789112 0.0074801077 0.092642903
-0.035415471 0.010351839 0.092508338
-0.031713758 0.011366125 0.092482321
-0.027596069 0.01279666 0.092614725
-0.023818366 0.013967711 0.092394315
0.034561738 0.010953329 0.092727296
0.036680512 0.012605886 0.09264604
-0.026175572 0.016023513 0.092451677
-0.022294592 0.017504193 0.092566811
-0.018313609 0.018603742 0.092676215
-0.014948315 0.019771017 0.09449666
0.034462314 0.019708948 0.092607737
0.036955018 0.017755616 0.092541866
-0.020786915 0.02068514 0.092278294
-0.017254308 0.021906035 0.092499584
-0.013200595 0.023320099 0.092624635
-0.0094357049 0.024581527 0.093208604
0.033324376 0.023162929 0.092585608
0.036195502 0.021733033 0.092586733
-0.01553334 0.025261784 0.092075266
-0.012012411 0.026368214 0.092466921
-0.007931564 0.027897883 0.092592917
-0.004112612 0.029269649 0.092630073
0.02868104 0.028302228 0.092591837
0.031827848 0.027060628 0.092581525
0.035147179 0.02515668 0.091844238
-0.0062686019 0.030944049 0.092456125
-0.0024606648 0.032360777 0.092552781
0.001339097 0.033832826 0.092490092
0.023970349 0.03368932 0.092472084
0.027474236 0.032430939 0.092574857
0.030571178 0.031050796 0.092707209
-0.00069265609 0.035387997 0.092245132
0.0029413248 0.03697636 0.092613891
0.0070933979 0.038440682 0.09255676
0.012181464 0.039623257 0.092557535
0.018262731 0.039003462 0.0925669
0.022519346 0.037528034 0.092542872
0.026427399 0.036797151 0.092572749
0.0045436206 0.040273428 0.092350468
0.0077766124 0.04113647 0.09249109
0.012377114 0.041326117 0.092616148
0.017510364 0.041230869 0.092671283
0.021806223 0.040949468 0.092304364
-0.03703833 -0.040501986 0.097199589
-0.033241287 -0.040591501 0.097507052
-0.027588258 -0.040355973 0.097454906
-0.045015413 -0.035435248 0.099510409
-0.041715011 -0.036503252 0.09742593
-0.037391536 -0.0373528 0.097482048
-0.032480374 -0.038267892 0.097573422
-0.027237056 -0.038100529 0.097449765
-0.022669258 -0.037044916 0.097533375
-0.019066125 -0.035863906 0.097345315
-0.046044987 -0.031857286 0.09764494
-0.042565271 -0.032491252 0.097401112
-0.038766 -0.033891913 0.097681932
-0.021427711 -0.034010515 0.097511873
-0.017404538 -0.032513388 0.097500168
-0.013602857 -0.030821137 0.097447708
-0.050570257 -0.026162352 0.097537518
-0.047229718 -0.027322099 0.097480282
-0.044020899 -0.028627416 0.097640231
-0.016052606 -0.029154185 0.097742058
-0.012265549 -0.027967723 0.0975722
-0.0082479548 -0.026371568 0.097467341
-0.0047850744 -0.025016015 0.095610991
-0.051546324 -0.022092011 0.097519323
-0.04862674 -0.022998784 0.097512439
-0.01038209 -0.02458797 0.096687824
-0.0067846612 -0.023379227 0.097596787
-0.0028214224 -0.021938181 0.097527586
0.00062744092 -0.02068219 0.097507969
-0.055382047 -0.016093297 0.097790323
-0.052599669 -0.017664971 0.097524069
-0.049659699 -0.019451924 0.097341448
-0.0013577539 -0.018818108 0.097561121
0.0025138888 -0.01757523 0.097553886
0.0063626575 -0.01618416 0.0973773
-0.055398822 -0.013092221 0.098209679
-0.05297162 -0.012391119 0.097582392
0.0040806108 -0.014206751 0.098090187
0.0078635179 -0.012986556 0.097547278
0.01200546 -0.011575792 0.097227849
0.015430533 -0.010535661 0.096484035
-0.055289015 -0.0093389805 0.098096944
-0.052150723 -0.0077259257 0.097586326
-0.04859557 -0.0064747222 0.097535193
0.0092084324 -0.0095675811 0.097993813
0.01297258 -0.0084898062 0.097443439
0.017154347 -0.0071800663 0.097457998
0.020947151 -0.0055880887 0.097645231
-0.051140182 -0.0033223827 0.097643659
-0.047403987 -0.0025902358 0.09747716
-0.04331968 -0.0015101609 0.09753821
-0.039783154 -0.00030520678 0.097717054
0.018503172 -0.0040410482 0.097507067
0.022445375 -0.0025698687 0.097600415
0.026756885 -0.0012288169 0.097528309
0.030243328 -0.00061938009 0.096764594
-0.046415385 0.0010745896 0.097389653
-0.042283192 0.0021947261 0.097460836
-0.03800172 0.003246387 0.0976272
-0.034504015 0.0044821734 0.097389802
0.023914708 0.00082748081 0.097519167
0.027706528 0.0021427763 0.097620167
0.032039285 0.0029643273 0.097641662
0.035841983 0.0040427665 0.097673133
-0.040644135 0.0055435682 0.097596042
-0.036902718 0.0067840554 0.09757378
-0.032924995 0.0080650365 0.097503074
-0.029171012 0.0092683295 0.097600684
0.029134914 0.0056988038 0.097038269
0.032946158 0.0071132579 0.097412162
0.036947343 0.0076420926 0.097485967
0.040115558 0.0097934371 0.09854836
-0.03144183 0.011317796 0.097430676
-0.027621368 0.012714427 0.097438142
-0.023857744 0.013953158 0.097283252
0.034344178 0.010713918 0.097227119
0.03684438 0.012407387 0.097639583
-0.026014972 0.015873946 0.097453021
-0.022346511 0.017376753 0.097416952
-0.018199189 0.018654361 0.097499959
-0.01468841 0.019760098 0.097943433
0.034633443 0.019587226 0.097412676
0.037060339 0.017688286 0.097571597
-0.020967472 0.020475138 0.09768457
-0.017224785 0.021761034 0.097482435
-0.013049349 0.023240875 0.097536504
-0.0096691782 0.024215953 0.097143784
0.033391137 0.023175001 0.097449951
0.036276281 0.021785751 0.097554184
-0.015374245 0.025053998 0.096595228
-0.011920623 0.02629469 0.097287521
-0.0078258347 0.027753223 0.097491339
-0.003968467 0.029082885 0.097546317
0.02876546 0.028463133 0.097424403
0.031964622 0.027106231 0.097512692
-0.0061480915 0.030911531 0.097208813
-0.0023971011 0.032241363 0.097563498
0.0014344184 0.033895057 0.097472191
0.023857687 0.033788927 0.097520359
0.027390912 0.032418132 0.097452588
0.030618003 0.031195719 0.097738579
-0.00051906845 0.035388507 0.097463325
0.0029780946 0.036928564 0.097570784
0.0070799245 0.038362388 0.097581007
0.012241748 0.039546512 0.097516924
0.018166488 0.039000537 0.097501241
0.022502955 0.037481785 0.097397037
0.026535634 0.036655147 0.09757752
0.004588386 0.040309194 0.096869886
0.0078811748 0.041165985 0.097499557
0.012455959 0.041369393 0.097464912
0.017504273 0.04119534 0.097461186
0.021706499 0.04100325 0.097251028
-0.036920276 -0.040571809 0.10219457
-0.033378709 -0.040618993 0.10267434
-0.027756151 -0.040205467 0.10241747
-0.045070097 -0.035413951 0.10075656
-0.04177295 -0.036738113 0.10236785
-0.037480369 -0.037454724 0.10248681
-0.032553039 -0.038220815 0.10248274
-0.027142353 -0.038071938 0.10242372
-0.022626759 -0.036955569 0.10241853
-0.01911276 -0.035841726 0.10230841
-0.046138186 -0.031699598 0.10228779
-0.042639788 -0.032532267 0.10245
-0.038660396 -0.033903982 0.10246971
-0.021349108 -0.033802103 0.10259713
-0.01755132 -0.032401871 0.10237717
-0.013939344 -0.030840559 0.10224221
-0.050514553 -0.026140777 0.10268626
-0.04723892 -0.027197886 0.10237986
-0.043820161 -0.028390901 0.10242847
-0.016100142 -0.029202187 0.10252132
-0.012253799 -0.027814304 0.1024809
-0.0084764026 -0.026261557 0.10233328
-0.0049100076 -0.025470015 0.10026865
-0.051509932 -0.021983631 0.10244567
-0.048499282 -0.023041412 0.10240895
-0.010662041 -0.024658691 0.10304864
-0.00693302 -0.023490259 0.10248569
-0.002884466 -0.021815516 0.10248704
0.00070272852 -0.020587238 0.10252976
-0.055366203 -0.015809206 0.10245797
-0.052428264 -0.017477365 0.10243506
-0.049583647 -0.019271163 0.10189927
-0.0015071253 -0.018640503 0.10256252
0.002386725 -0.0174722 0.10237861
0.0061449423 -0.01610785 0.10239117
-0.05539009 -0.013379117 0.10281699
-0.05283799 -0.012449971 0.10236553
0.0038442179 -0.01416008 0.10250298
0.0078031379 -0.012838679 0.10248365
0.011855471 -0.011382367 0.10239508
0.015385855 -0.010575784 0.10072887
-0.055225421 -0.0096919211 0.10175005
-0.052205957 -0.0076774061 0.10248806
-0.048568889 -0.0065780263 0.10242902
-0.04495373 -0.0053269146 0.10405949
0.0092777144 -0.0093586864 0.10237506
0.013145061 -0.0085336715 0.1025167
0.017228212 -0.0070073507 0.10242581
0.0208632 -0.0057103881 0.10230598
-0.051154654 -0.0034825276 0.10250554
-0.047434997 -0.0027231681 0.10248879
-0.043318834 -0.0015994709 0.1024648
-0.039597429 -0.00034423568 0.10243808
0.018367548 -0.0037408944 0.10256306
0.022434283 -0.0025186476 0.10245212
0.026555458 -0.0011187354 0.10251977
-0.046548877 0.00091941404 0.10254685
-0.04215046 0.0020437143 0.10237916
-0.038071454 0.003106161 0.10266248
-0.034377247 0.0045470828 0.10217449
0.023848696 0.00094503164 0.10277184
0.027684323 0.0021792424 0.10252976
0.032063965 0.0030734958 0.10247285
0.035730898 0.0040724161 0.10232943
-0.040186279 0.0055768518 0.10216748
-0.036856521 0.0067552105 0.10247464
-0.03281853 0.008033718 0.10233919
-0.029091747 0.009401897 0.10225067
0.029356956 0.0056925518 0.10225165
0.032837156 0.0070020882 0.10244012
0.036890585 0.0079457881 0.10240972
-0.031460546 0.011314905 0.10244754
-0.027543196 0.012791965 0.10239664
-0.023681056 0.014083735 0.10258404
0.034496691 0.010575535 0.10218761
0.036982052 0.012438818 0.10257412
-0.026078478 0.015864512 0.1022791
-0.022396026 0.017356012 0.10244882
-0.018375117 0.018621203 0.10255247
-0.014336957 0.019782687 0.10256934
0.034554627 0.019441655 0.10195792
0.037049934 0.01766227 0.10243596
