# .PCD v0.7 - Point Cloud Data file format
VERSION 0.7
FIELDS x y z
SIZE 4 4 4
TYPE F F F
COUNT 1 1 1
WIDTH 1291
HEIGHT 1
VIEWPOINT 0 0 0 1 0 0 0
POINTS 1291
DATA ascii
0.027712977 0.036119498 0.017604604
0.032574367 0.037262488 0.017809901
0.0373975 0.038285777 0.01770417
0.04232135 0.03886335 0.01769425
0.047223855 0.039232176 0.017611215
0.052440088 0.039509136 0.018003255
0.057533994 0.039736126 0.017528424
0.062616765 0.039750393 0.017783744
0.067665718 0.039621189 0.018338544
0.07273373 0.039465025 0.018302267
0.077684745 0.039208431 0.018102592
0.082751423 0.038750414 0.017796263
0.087697871 0.037967563 0.017766897
0.092328958 0.036835164 0.017619992
0.096106865 0.035822686 0.01751456
0.033629671 0.040141121 0.019619368
0.037661001 0.040397808 0.01886302
0.042858332 0.040685263 0.017979745
0.047849141 0.040982306 0.017652554
0.052646633 0.041334752 0.017647984
0.05761838 0.041662741 0.017746031
0.06253852 0.041779462 0.017731797
0.067400686 0.041653432 0.017681673
0.072363265 0.041647155 0.01757415
0.077426933 0.041417863 0.017649932
0.082215503 0.041215643 0.017826166
0.086722612 0.040777244 0.018099114
0.091969736 0.040065557 0.017653305
-0.050712787 -0.09050715 0.022219259
-0.048137721 -0.090409555 0.022778409
-0.04476162 -0.090336464 0.02090352
-0.051402051 -0.086906388 0.022320297
-0.047569077 -0.087329768 0.022564761
-0.04279032 -0.086987861 0.022516124
-0.039352421 -0.085562252 0.023121914
-0.055486966 -0.081319258 0.021973345
-0.052380774 -0.082346752 0.022414524
-0.047616735 -0.082614303 0.022779504
-0.042596892 -0.082555272 0.0225954
-0.039010476 -0.08221145 0.022838037
-0.056075066 -0.076971456 0.022405235
-0.052576963 -0.077491418 0.022574598
-0.047543343 -0.07758753 0.023187418
-0.042435102 -0.077527918 0.022737488
-0.038832158 -0.077397831 0.022777949
-0.056296103 -0.072302669 0.022559732
-0.052675325 -0.072440118 0.02264292
-0.047522679 -0.072462961 0.023281144
-0.042341292 -0.072509073 0.022819173
-0.038536754 -0.0724371 0.022427414
-0.056725595 -0.067299798 0.022489144
-0.052688073 -0.067391299 0.022820653
-0.047737043 -0.067590162 0.023231763
-0.042359285 -0.067400031 0.022905163
-0.037855126 -0.06730666 0.022421392
-0.034577452 -0.065816835 0.021729451
-0.060652707 -0.060393732 0.021580895
-0.05733658 -0.062360372 0.02247539
-0.052929603 -0.062733367 0.022885082
-0.047901221 -0.062965654 0.024053387
-0.041959319 -0.063029334 0.023319338
-0.037448674 -0.062438622 0.022588475
-0.03395699 -0.061619256 0.022293614
-0.061115365 -0.05720491 0.022404015
-0.057651646 -0.057560928 0.022608822
-0.053591929 -0.058289222 0.023853684
-0.048354186 -0.058694292 0.02472668
-0.041279018 -0.059043519 0.024500318
-0.036631003 -0.058099896 0.022967959
-0.032749861 -0.057323027 0.022451818
-0.029264929 -0.055939898 0.022194097
-0.061610546 -0.052551191 0.022372508
-0.058118418 -0.052699562 0.022877106
-0.054413427 -0.052858595 0.024684366
-0.035561159 -0.054303855 0.024043452
-0.031866971 -0.052955627 0.022800826
-0.028360663 -0.051985495 0.022315674
-0.02494676 -0.051055517 0.020466736
-0.065242566 -0.045377132 0.020399634
-0.062011044 -0.047488283 0.022342676
-0.058581453 -0.047625709 0.022905311
-0.030792445 -0.048807774 0.02382475
-0.027307287 -0.047613036 0.022583431
-0.023393823 -0.046608098 0.021916097
-0.019840499 -0.045245893 0.020551171
-0.065219402 -0.044274557 0.020462468
-0.061988126 -0.042593479 0.022341764
-0.058631714 -0.042456772 0.022971051
-0.02633252 -0.043301642 0.023275936
-0.022676321 -0.042445626 0.022341689
-0.018751267 -0.041527823 0.021792399
-0.061577309 -0.037627611 0.022227872
-0.058338862 -0.037339561 0.022826519
-0.025561139 -0.039128762 0.024627047
-0.021743618 -0.038007934 0.022889638
-0.017784948 -0.037206367 0.022406222
-0.014029365 -0.036142725 0.021980237
-0.061262038 -0.032573175 0.021826932
-0.057781484 -0.032316782 0.022694392
-0.054744493 -0.031620625 0.024218706
-0.020500168 -0.034131825 0.023949699
-0.016963817 -0.033013634 0.022800412
-0.012850727 -0.032154419 0.022476748
-0.0083478577 -0.031285025 0.021730216
-0.004328724 -0.030051934 0.020249331
-0.060573507 -0.027929613 0.021216301
-0.057360705 -0.027513593 0.022403814
-0.054220546 -0.026873404 0.023424204
-0.015417894 -0.029231574 0.024073642
-0.011932363 -0.028224993 0.022942375
-0.0077368948 -0.027261371 0.022446444
-0.0031516654 -0.026755806 0.021856463
0.00022693721 -0.026011463 0.02128407
-0.060278364 -0.024034191 0.020940626
-0.056947701 -0.022732794 0.022250932
-0.053397804 -0.022184683 0.022780037
-0.049615581 -0.020064244 0.024572689
-0.01075575 -0.024427356 0.024281029
-0.0067071132 -0.023550883 0.023098148
-0.0025908051 -0.022427151 0.022638582
0.0018114017 -0.021620126 0.022594025
0.0057717334 -0.020726936 0.022512324
-0.05610577 -0.01838644 0.021603744
-0.052497793 -0.017566452 0.022510536
-0.0492367 -0.016539646 0.023226013
-0.005988712 -0.0198578 0.024669681
-0.0017589111 -0.018701768 0.023521928
0.0027224517 -0.017755853 0.022578301
0.007034163 -0.016738657 0.022559589
0.011840434 -0.015940089 0.023336202
0.016618039 -0.015559828 0.023831291
-0.055025149 -0.014725428 0.020818753
-0.05190469 -0.012973005 0.022360351
-0.048006926 -0.012328475 0.02261376
-0.044488803 -0.010807902 0.024009241
0.0041445899 -0.01441793 0.023932083
0.0081806201 -0.013666529 0.022767181
0.01257605 -0.012410544 0.022584401
0.017325491 -0.011867383 0.022821847
0.022100283 -0.011519358 0.023225605
0.026564548 -0.01085002 0.022087326
-0.050791159 -0.0092365388 0.021789212
-0.04711353 -0.0079704374 0.022456199
-0.043279819 -0.0069296495 0.022802744
-0.039532468 -0.0056511075 0.024338482
0.013859192 -0.0093471985 0.023421602
0.017823987 -0.0086968262 0.022742033
0.022471301 -0.0077739814 0.022637509
0.027355481 -0.0070561226 0.022662204
0.032027535 -0.0063842484 0.022591252
0.036975272 -0.0058096908 0.022302458
0.042150248 -0.0054592076 0.021273723
0.045382649 -0.0052423952 0.020498428
-0.046036597 -0.00380449 0.022521125
-0.042144883 -0.0028141725 0.022528583
-0.038256764 -0.0016719926 0.022763437
-0.034671441 -0.0004969617 0.023927778
0.023907522 -0.0046717301 0.023580112
0.02806554 -0.003898015 0.022958932
0.032694668 -0.0033245005 0.022746295
0.037545059 -0.0026118765 0.022492532
0.042411394 -0.0020310536 0.022290425
0.047221839 -0.0014900158 0.02202311
0.052185398 -0.00092889875 0.022041023
0.057036337 -0.00058311294 0.021641398
0.062361822 -0.00018578065 0.021277629
0.065303013 -4.2091338e-05 0.020838201
-0.041118313 0.0014465726 0.022919919
-0.037038099 0.0019685812 0.022514759
-0.032952543 0.0032372014 0.022793412
-0.02913068 0.0045373645 0.023876848
0.03459448 0.00027582556 0.024457537
0.038116615 0.00040677655 0.023864824
0.042928133 0.00091941969 0.02315441
0.047830943 0.0015172071 0.022743301
0.052683398 0.0020593852 0.022659296
0.057542436 0.00245733 0.022476068
0.062385626 0.0027835432 0.022442333
0.067295656 0.0031406465 0.022245351
0.072306365 0.0032880954 0.022313373
0.077142745 0.0037945164 0.022237876
0.081782274 0.0043027936 0.022000929
0.085867122 0.0046680085 0.021053428
-0.036081959 0.0057100193 0.023553504
-0.031972393 0.0071016685 0.022607328
-0.027669948 0.0079733813 0.022531128
-0.02364723 0.0092026796 0.023280082
0.049185734 0.0050268834 0.024908166
0.053251226 0.0054260329 0.024373442
0.057947718 0.0056396164 0.023630535
0.062857896 0.0059752692 0.023413064
0.067675613 0.0063101691 0.023032418
0.07255172 0.0067737368 0.022797354
0.077549145 0.0072796708 0.022676162
0.082502916 0.0077713225 0.022470657
0.087315015 0.0081113046 0.022335324
0.091938332 0.0088708503 0.022047604
0.095739909 0.0099990098 0.022608995
-0.030916939 0.010730265 0.02211096
-0.027085407 0.011761286 0.0226124
-0.022455201 0.012477077 0.022537796
-0.017989006 0.013627228 0.022828477
-0.014358414 0.014634258 0.023556821
0.078352496 0.010753643 0.024176372
0.083099172 0.011655179 0.023601143
0.087791473 0.012197595 0.022839615
0.092423387 0.01268861 0.022487402
0.096626632 0.013239895 0.022281557
-0.025278443 0.016035423 0.021582333
-0.021236502 0.016366804 0.021942241
-0.017156426 0.017030533 0.022440385
-0.012699174 0.017733404 0.022584595
-0.0082214912 0.018880581 0.022877365
-0.0040233326 0.019527728 0.024105657
0.083405651 0.01708941 0.0246056
0.088040173 0.017240508 0.024135605
0.093021639 0.017307693 0.022981675
0.097419165 0.017561851 0.022449519
0.10097435 0.018261312 0.021957524
-0.016770016 0.020513086 0.021720521
-0.012050999 0.021229796 0.022315985
-0.0073022465 0.021866327 0.022338727
-0.0027117971 0.022746518 0.022651307
0.001916885 0.023835357 0.022977171
0.0060698888 0.024377136 0.023962215
0.083792605 0.022158304 0.024754269
0.088186532 0.022325059 0.024308361
0.0930316 0.022396306 0.023579713
0.097546615 0.022437207 0.022521993
0.10144411 0.022580551 0.022097681
-0.0054725818 0.025150305 0.020600902
-0.0013680288 0.025940407 0.021755295
0.002754872 0.026850173 0.022237789
0.007444249 0.027688449 0.022657247
0.012281341 0.028490763 0.022769989
0.016926978 0.029085847 0.023262717
0.02110225 0.029453272 0.024452846
0.083622061 0.028244486 0.024636652
0.088119373 0.027672241 0.024258185
0.092995793 0.027537484 0.023366775
0.09756837 0.027372722 0.022541229
0.10130997 0.027071796 0.022357274
0.0040428527 0.03058069 0.020835903
0.0082197115 0.03087065 0.021829773
0.012892381 0.031329647 0.022447424
0.017679945 0.032120552 0.022479389
0.022407591 0.032757904 0.022580232
0.027181251 0.033451162 0.022835972
0.031942658 0.034068689 0.02325798
0.036668122 0.034555387 0.02405623
0.042651411 0.034875449 0.024938535
0.078765363 0.034129929 0.024453646
0.083152778 0.033476602 0.024215797
0.087972008 0.03300276 0.023408469
0.092706688 0.032547239 0.022565264
0.097239658 0.032096878 0.022347355
0.10069012 0.030947207 0.022836145
0.019644562 0.035398096 0.022250745
0.023169482 0.035975728 0.022139844
0.027868571 0.036600851 0.02223799
0.032553311 0.037053831 0.022474991
0.037477154 0.037524544 0.022550609
0.042475071 0.038021073 0.022667479
0.04747875 0.038397186 0.022762783
0.052559938 0.038590014 0.022898631
0.057456687 0.038710557 0.022929845
0.062356967 0.0387257 0.02296062
0.067519635 0.038661242 0.022866599
0.072550185 0.038351532 0.022906126
0.077560768 0.037936714 0.022786932
0.082566418 0.037594218 0.022604993
0.087516405 0.037171677 0.022373553
0.092109196 0.036487553 0.022254106
0.095951445 0.035705332 0.02223571
0.034811258 0.040141884 0.020783836
0.0383595 0.040635612 0.021686485
0.04254204 0.041102305 0.0219495
0.047629569 0.041209079 0.02203838
0.052523173 0.041164596 0.022201639
0.057539422 0.041334055 0.022089384
0.062361445 0.041316401 0.022124892
0.067474551 0.041201659 0.022296645
0.072594069 0.041276969 0.02231808
0.077348106 0.041198306 0.022267597
0.08174143 0.040789742 0.022122066
0.086605139 0.040271658 0.022281822
-0.045085598 -0.090378501 0.02761068
-0.044073198 -0.090212964 0.028049342
-0.050979301 -0.08641009 0.02696817
-0.047490623 -0.086956762 0.027155129
-0.042983867 -0.086904705 0.027167002
-0.039585356 -0.085809521 0.026742518
-0.055113833 -0.081955962 0.026506137
-0.052060712 -0.082218572 0.027319109
-0.047497071 -0.082458116 0.027329037
-0.0426149 -0.082453601 0.027255021
-0.039141715 -0.082142405 0.026715519
-0.055545676 -0.076793142 0.026747042
-0.052399974 -0.077454679 0.027388524
-0.04759312 -0.077476084 0.027338587
-0.042632699 -0.077434748 0.027282158
-0.039079376 -0.077549323 0.026899807
-0.055870879 -0.072355554 0.026824715
-0.05245642 -0.072382577 0.027432028
-0.047622036 -0.072355539 0.027397411
-0.042624105 -0.072384588 0.027296523
-0.039092649 -0.072284423 0.026721871
-0.056293443 -0.067301996 0.027137179
-0.052523598 -0.067362569 0.027351087
-0.047615755 -0.067351304 0.027380252
-0.04257042 -0.067381524 0.027389551
-0.038463358 -0.067038171 0.027168263
-0.060208142 -0.060336798 0.026574755
-0.056998637 -0.062249895 0.027275819
-0.052591175 -0.06249084 0.027370157
-0.04761558 -0.062475331 0.027387623
-0.042512011 -0.062448874 0.027429767
-0.037696205 -0.062320918 0.027311834
-0.034396801 -0.06104888 0.02660336
-0.060754292 -0.056910176 0.026747342
-0.057455923 -0.057517327 0.027387317
-0.052691787 -0.057621863 0.02743124
-0.047712535 -0.057686381 0.027697774
-0.042510454 -0.057678364 0.027741486
-0.03743916 -0.057558954 0.027431812
-0.033260271 -0.057173487 0.027354171
-0.06111227 -0.052569728 0.026930628
-0.057482727 -0.052639402 0.027341766
-0.052755915 -0.052732635 0.027787201
-0.047602557 -0.052713346 0.028262544
-0.042515505 -0.052737482 0.028493952
-0.037191357 -0.052903872 0.02806385
-0.03248661 -0.052630398 0.027388237
-0.028770911 -0.051612094 0.027662601
-0.061379846 -0.047600448 0.027009815
-0.057571862 -0.047644164 0.027396301
-0.052790731 -0.047638651 0.028274273
-0.047757857 -0.047781754 0.028714105
-0.042711567 -0.047832336 0.028951112
-0.03739509 -0.047895063 0.029047262
-0.032074664 -0.04790007 0.027794862
-0.027676189 -0.047380496 0.027435197
-0.024067916 -0.046264831 0.027806267
-0.061355788 -0.042615213 0.02706255
-0.057581339 -0.042533871 0.027406156
-0.052927144 -0.042580411 0.028541362
-0.047790159 -0.042674553 0.029210921
-0.042847387 -0.043110251 0.029522432
-0.037612382 -0.043559045 0.029582456
-0.031596985 -0.043255672 0.028733216
-0.027246963 -0.042693436 0.027521897
-0.022954002 -0.042030461 0.027438376
-0.019248737 -0.040640142 0.027943077
-0.060915165 -0.037830945 0.026952619
-0.057502609 -0.037527066 0.027359085
-0.053128287 -0.037385322 0.028475128
-0.048191667 -0.037523083 0.029424647
-0.04324542 -0.038452212 0.029658156
-0.038630322 -0.039698035 0.029820278
-0.030426461 -0.039497852 0.029294189
-0.02661239 -0.037932519 0.028264899
-0.022382474 -0.037546854 0.02741487
-0.018046906 -0.036983151 0.027530184
-0.013907774 -0.035590302 0.02775638
-0.06058478 -0.032725524 0.026966985
-0.057324216 -0.032522079 0.027385527
-0.053097785 -0.032267824 0.028028641
-0.048439972 -0.032299675 0.02945536
-0.044203188 -0.03304369 0.029785037
-0.025768965 -0.033983964 0.029196465
-0.021784497 -0.033118904 0.028110221
-0.01747714 -0.032444831 0.027484003
-0.013031408 -0.031926744 0.027438387
-0.0088706948 -0.031076759 0.027517971
-0.060243044 -0.029952768 0.02627793
-0.056925219 -0.027701665 0.027416129
-0.052910157 -0.027350765 0.027643362
-0.048608813 -0.02729336 0.029202279
-0.044574928 -0.02711216 0.029812319
-0.021114435 -0.029492851 0.029376751
-0.016824055 -0.02826101 0.028127583
-0.012506575 -0.027454721 0.027482605
-0.007975799 -0.027092669 0.027388474
-0.0039890977 -0.025960358 0.027636463
-0.056075331 -0.022944523 0.027666755
-0.052557819 -0.022420639 0.027417546
-0.048475698 -0.022172287 0.028640242
-0.04424284 -0.020995516 0.029668525
-0.01598159 -0.024643747 0.029192761
-0.011721514 -0.023428492 0.028295243
-0.0074565052 -0.022576878 0.027522452
-0.0028539794 -0.022117447 0.02740665
0.0014554908 -0.020829385 0.027380992
0.0054508494 -0.020050732 0.026191302
-0.055668559 -0.018669521 0.027996814
-0.052125901 -0.017788583 0.027349954
-0.048010506 -0.017391613 0.027720999
-0.043961547 -0.016618269 0.029164322
-0.010494781 -0.019721974 0.029708788
-0.0064602182 -0.018738581 0.028426755
-0.0023157718 -0.017826201 0.027600721
0.0023858228 -0.017380735 0.027351815
0.0070867552 -0.016836485 0.027349573
0.011746242 -0.015831698 0.026936151
0.015905885 -0.01537859 0.025279308
-0.05112895 -0.013297169 0.027021294
-0.047385056 -0.012689518 0.02733201
-0.043265708 -0.012116014 0.028150998
-0.039478954 -0.0112307 0.029657746
-0.0016516089 -0.014018052 0.02868147
0.0029530942 -0.013442399 0.027976859
0.0076718237 -0.012760674 0.027513696
0.012475475 -0.012416542 0.027355624
0.017259296 -0.011749966 0.027250575
0.021171808 -0.010922899 0.026619837
-0.046716169 -0.0082246382 0.027121978
-0.042594954 -0.0075665079 0.027490584
-0.03850881 -0.0066508949 0.028323134
-0.033777714 -0.0052538924 0.029828824
0.0047180275 -0.0098221246 0.029524043
0.0086624054 -0.0090944199 0.028631596
0.013009825 -0.0083267484 0.027938779
0.01766373 -0.0076597203 0.02749862
0.022377362 -0.0073529682 0.027379876
0.027118271 -0.0066655297 0.027286608
0.031756412 -0.0059629888 0.027905315
0.035993483 -0.0053544319 0.027987784
-0.045554183 -0.0044050133 0.026436808
-0.041854512 -0.0031808072 0.027082544
-0.037595347 -0.0024541342 0.027474085
-0.033281911 -0.0015394563 0.028352164
-0.028998341 -0.00039015021 0.029376738
0.018349227 -0.0039756545 0.028652489
0.022776049 -0.003468801 0.028013671
0.027514584 -0.0028330812 0.027765993
0.032380767 -0.0024420072 0.027395243
0.037280258 -0.0019253693 0.027361088
0.042359475 -0.0013095851 0.027451418
0.047421992 -0.00088549987 0.027528839
0.052442264 -0.00065332436 0.028426673
0.058228824 -0.00040206133 0.027702698
0.061244287 -0.00012584894 0.027613401
-0.040753398 0.00049829122 0.025574714
-0.03671528 0.0017519649 0.027017104
-0.032448545 0.0025417407 0.027396072
-0.027999284 0.0033201405 0.028137067
-0.024064763 0.0043236893 0.029291919
0.028077349 0.00098068011 0.02902054
0.032907881 0.0012494194 0.028290456
0.037641104 0.001792665 0.027954735
0.042673614 0.002175272 0.027612263
0.047583133 0.0025376815 0.027370606
0.052565534 0.0027239714 0.027369209
0.057534631 0.0029907667 0.027372612
0.062425371 0.003092895 0.027590984
0.067346409 0.0035019394 0.027551746
0.072196148 0.0039850948 0.027415849
0.077064805 0.0043419302 0.026966505
0.080950849 0.0045775119 0.025865547
-0.035613004 0.0057036257 0.02540135
-0.031612035 0.0063937264 0.026778297
-0.027311418 0.0074246395 0.027327199
-0.022871254 0.0081279818 0.027827179
-0.018811844 0.0091837933 0.028723367
0.038709383 0.0055545727 0.029513177
0.043243211 0.0060583591 0.02897644
0.047911867 0.006278954 0.028463239
0.052705914 0.0067445608 0.028206771
0.057639915 0.0069774101 0.027953437
0.062457453 0.0073106727 0.027702641
0.067344971 0.0074394555 0.02754309
0.072414406 0.0075977133 0.027441908
0.077412635 0.007666673 0.027365308
0.08237908 0.0079419073 0.027313199
0.087170102 0.0087399241 0.027218003
0.091055483 0.0093319407 0.026863609
-0.026363881 0.011243287 0.026921958
-0.022222325 0.012137625 0.027332846
-0.017686265 0.012754092 0.02758419
-0.013111022 0.013679384 0.028081501
-0.0086183939 0.014377893 0.029020311
0.04892534 0.010044494 0.029929785
0.052647859 0.010685286 0.029771307
0.058144312 0.011779063 0.029558331
0.062931992 0.011913245 0.029123338
0.067642719 0.012157017 0.028693933
0.072571516 0.012285196 0.028198624
0.077566236 0.012418248 0.027702214
0.082583047 0.012567004 0.027457511
0.087511234 0.012703952 0.02730233
0.092226647 0.012978887 0.027107939
0.096442446 0.013840578 0.02665245
-0.021152258 0.015657067 0.027562477
-0.017139712 0.016436631 0.027276985
-0.012370376 0.01720383 0.027312854
-0.0077884039 0.01782231 0.027629424
-0.0030742583 0.018538073 0.028162315
0.001278262 0.019018004 0.029051431
0.059455402 0.017519105 0.029762849
0.063219033 0.01701517 0.029552348
0.067790113 0.017362108 0.029150477
0.07266707 0.017414138 0.028556468
0.07764589 0.017478989 0.028037757
0.082609087 0.017581761 0.027655741
0.087640956 0.017553302 0.02738574
0.0926117 0.01755234 0.027334964
0.097303197 0.017755724 0.027242793
0.10066552 0.018525591 0.026318161
-0.011246737 0.020766266 0.027216967
-0.006906183 0.021317426 0.027340518
-0.0022661323 0.022102123 0.027357498
0.0023117114 0.022752944 0.027657341
0.007178545 0.02359993 0.027924232
0.011569803 0.024293778 0.028617579
0.015489279 0.024552649 0.029717067
0.05937659 0.023373272 0.029887866
0.062791735 0.02263413 0.029570023
0.067621179 0.022468345 0.029191028
0.072786622 0.022447547 0.028601613
0.077643476 0.022399802 0.028095121
0.082695901 0.022472415 0.027680889
0.087670669 0.022436777 0.027464975
0.092635177 0.022472711 0.02729647
0.097378433 0.022558449 0.027339965
0.10081738 0.022416037 0.026542827
-0.0012680454 0.025767472 0.028479962
0.0031320534 0.026293943 0.027449388
0.0077247932 0.027185149 0.027388927
0.012575737 0.027577626 0.02751263
0.017308747 0.028053371 0.027797775
0.022131577 0.028709592 0.028026095
0.026743449 0.029148974 0.028859533
0.031709895 0.029430937 0.029547231
0.053660501 0.029179426 0.029918844
0.058280207 0.028433666 0.029669074
0.062892288 0.027889688 0.029456263
0.067723848 0.027536752 0.029004471
0.072599858 0.027511459 0.028531076
0.077630311 0.027522245 0.028007269
0.082559384 0.027420714 0.027644154
0.087620586 0.027429339 0.027409283
0.09254574 0.027364943 0.027390674
0.097368784 0.027457422 0.027293982
0.10075839 0.027401306 0.026517853
0.0087958761 0.030733768 0.027815115
0.013037696 0.03136383 0.027666736
0.01772825 0.031889539 0.027458629
0.022493897 0.032269608 0.027419299
0.027346414 0.032526698 0.027501158
0.032239135 0.032855976 0.027736723
0.037295956 0.033371609 0.027953334
0.042386219 0.033679165 0.028309764
0.047443118 0.033868365 0.02872402
0.052800719 0.033595737 0.029030817
0.057722822 0.033291385 0.029018648
0.062575728 0.032942515 0.028955137
0.067569748 0.032787938 0.028588042
0.072555393 0.032674763 0.028099298
0.077538334 0.032584388 0.027717367
0.082589097 0.032476716 0.027489347
0.087605566 0.032341678 0.027323471
0.092510127 0.032321531 0.027254323
0.096943378 0.031728216 0.027157359
0.10057674 0.030686241 0.02623116
0.019764245 0.035360791 0.028448299
0.023402693 0.035405219 0.027274884
0.027869368 0.036037855 0.027355317
0.032673854 0.036557656 0.027421802
0.037597165 0.03701346 0.027512819
0.042575624 0.037278939 0.027390826
0.047594316 0.037425645 0.027418748
0.052534904 0.037576694 0.027499355
0.057496447 0.037591945 0.027534829
0.06241782 0.037632655 0.027516663
0.0673922 0.037594441 0.027441233
0.07241752 0.037448503 0.02741193
0.077455044 0.03733062 0.027352674
0.082453579 0.037209284 0.027291672
0.087250464 0.036773633 0.027188679
0.091887459 0.035909589 0.027020359
0.095697932 0.035570279 0.025478583
0.03856048 0.040269863 0.028746212
0.043027777 0.040467765 0.028134519
0.047780339 0.040728647 0.027483303
0.052729368 0.041064624 0.027404668
0.057568993 0.041178811 0.027257217
0.062523477 0.041349184 0.026971554
0.06738437 0.041179724 0.027109757
0.072340935 0.041037146 0.026848506
0.076962203 0.040783208 0.026480852
0.082169302 0.040401179 0.026406141
0.085699938 0.040225688 0.025486136
-0.051103719 -0.085842051 0.030568415
-0.04745904 -0.086123012 0.030879462
-0.043895625 -0.086166695 0.030451894
-0.051666077 -0.082115963 0.030984011
-0.047479343 -0.082270883 0.03144649
-0.043599449 -0.082118504 0.031324781
-0.051776335 -0.077461399 0.031202003
-0.047459923 -0.077544153 0.031312816
-0.043204859 -0.077547744 0.031086182
-0.039800428 -0.078952275 0.030030902
-0.05221187 -0.072371863 0.031113556
-0.04758139 -0.072504014 0.031174736
-0.043431312 -0.072335914 0.03098454
-0.055626046 -0.066800803 0.031347338
-0.052501585 -0.067358032 0.031139661
-0.047472622 -0.067354217 0.031260442
-0.043031935 -0.067151286 0.031257089
-0.039048139 -0.06643986 0.030361088
-0.056261536 -0.062137611 0.031369716
-0.052455626 -0.062345795 0.031468194
-0.047491748 -0.062211838 0.031714354
-0.042712171 -0.06227003 0.031760983
-0.038002495 -0.061941646 0.03114683
-0.060313344 -0.055891283 0.030440409
-0.056889582 -0.057265285 0.031712014
-0.052534189 -0.05746267 0.032076992
-0.047549319 -0.057504185 0.032289941
-0.042618837 -0.057517618 0.032235291
-0.037773389 -0.057371289 0.031964723
-0.033720739 -0.056867588 0.031509835
-0.060628098 -0.05155158 0.031225696
-0.057266995 -0.052431289 0.032104593
-0.052570496 -0.052589342 0.032325033
-0.047576223 -0.052590303 0.032377601
-0.042529199 -0.052610632 0.03238197
-0.037514918 -0.0525214 0.032264303
-0.032680873 -0.052259393 0.031943727
-0.029186325 -0.05120685 0.03176295
-0.060838208 -0.04736159 0.031249722
-0.057310857 -0.047516536 0.032291967
-0.052562181 -0.047622796 0.032384384
-0.047612291 -0.047578212 0.032390293
-0.04254739 -0.047618616 0.03240582
-0.037489105 -0.04758843 0.032338843
-0.032485001 -0.047542609 0.032303464
-0.027949004 -0.047127735 0.032038443
-0.024646515 -0.04592707 0.032108862
-0.06086579 -0.042672787 0.031461075
-0.057343856 -0.042521752 0.032212984
-0.052608002 -0.042551037 0.032385666
-0.047606602 -0.042557057 0.032407895
-0.042536277 -0.042538472 0.032448284
-0.037465643 -0.042565275 0.032467492
-0.032401215 -0.042538568 0.032385658
-0.027481571 -0.042470522 0.032369629
-0.023214838 -0.041867174 0.03228981
-0.019455101 -0.040634654 0.030600458
-0.060710434 -0.03767902 0.031653311
-0.057259046 -0.037489381 0.032344263
-0.0526141 -0.037482008 0.032370973
-0.047631372 -0.037472934 0.032426845
-0.042574063 -0.037511155 0.03251864
-0.037508305 -0.037512846 0.032683846
-0.032362387 -0.037593961 0.032680605
-0.027356682 -0.037494875 0.032452054
-0.022468403 -0.037372079 0.032368604
-0.018269151 -0.036640808 0.032257728
-0.014188275 -0.03543565 0.030396573
-0.060448058 -0.033195499 0.03104585
-0.057095017 -0.032577619 0.032150358
-0.052605372 -0.032406811 0.032372784
-0.047639143 -0.032394998 0.032450885
-0.042638347 -0.032454222 0.032691095
-0.037539963 -0.03246915 0.032973845
-0.032478854 -0.03251164 0.033136364
-0.027219474 -0.03260421 0.032816716
-0.02243967 -0.032428123 0.03244717
-0.017658083 -0.032335218 0.032391891
-0.013282538 -0.03154764 0.032461476
-0.0093417522 -0.030544609 0.030852346
-0.056472857 -0.027794816 0.031966299
-0.052536681 -0.027431535 0.032393552
-0.047639664 -0.027337365 0.032415863
-0.042637512 -0.027397472 0.03275869
-0.037576236 -0.027487218 0.033163756
-0.032497916 -0.027480112 0.033478219
-0.027328158 -0.027543629 0.033636067
-0.022232566 -0.027601896 0.033039313
-0.017545292 -0.027403075 0.032455146
-0.012727423 -0.027335867 0.032404058
-0.0083074411 -0.026728876 0.032646801
-0.0041898987 -0.025391085 0.033217698
-0.055996459 -0.023378903 0.031426936
-0.052322462 -0.0225727 0.032309253
-0.047601644 -0.022371557 0.032410685
-0.042655483 -0.022439541 0.032728147
-0.037605271 -0.022467116 0.033310756
-0.032620899 -0.022494012 0.033792373
-0.027521044 -0.02245228 0.034036677
-0.022337817 -0.022724034 0.033894315
-0.017356645 -0.022728534 0.033219956
-0.012518611 -0.022559704 0.032496989
-0.0076879319 -0.022353552 0.032360967
-0.0029127847 -0.021917634 0.032614376
0.00081942085 -0.020875011 0.0325904
-0.051630046 -0.01793137 0.032368444
-0.047534231 -0.017578002 0.032374319
-0.04266227 -0.017542945 0.032558296
-0.037650261 -0.017501483 0.033269629
-0.032620959 -0.017678659 0.033866864
-0.027640045 -0.017449528 0.034256995
-0.022421794 -0.017628822 0.03440116
-0.01750504 -0.017978676 0.034169022
-0.012401527 -0.017903239 0.033543296
-0.0074921949 -0.017707564 0.03261622
-0.0025749742 -0.017493129 0.032343499
0.0022227438 -0.017150223 0.032305401
0.0069157244 -0.016198583 0.032114036
0.010754675 -0.015562306 0.031575501
-0.050704207 -0.013773954 0.032147616
-0.047166131 -0.012793764 0.032257739
-0.04254232 -0.012633625 0.032411154
-0.03767721 -0.012460256 0.032931477
-0.032687731 -0.012522169 0.033764541
-0.027801804 -0.012453963 0.034313507
-0.022562247 -0.012871386 0.034600366
-0.017621841 -0.013401146 0.034609541
-0.012168191 -0.013084379 0.034350507
-0.0071557583 -0.013122034 0.033710204
-0.0023321377 -0.012954357 0.032824785
0.0025378375 -0.012650575 0.032427378
0.0075159571 -0.012428605 0.032372955
0.012329271 -0.012043346 0.032274462
0.017112067 -0.011210667 0.031828325
0.020782841 -0.010451742 0.031573351
-0.046454653 -0.0083065769 0.031736296
-0.042341273 -0.0077208076 0.032308184
-0.037529182 -0.0075373207 0.03247701
-0.032664958 -0.0073585822 0.033182271
-0.0278199 -0.0073401588 0.034013502
-0.023010558 -0.0072464948 0.034634519
-0.018577676 -0.0079743164 0.034876011
-0.012555114 -0.0099177035 0.034844492
-0.0066967392 -0.0089053623 0.034491595
-0.0020375124 -0.0083875284 0.03414803
0.0027696895 -0.0080753118 0.033371091
0.0077211433 -0.0078246025 0.032681823
0.012599463 -0.0075981873 0.032402497
0.017506294 -0.0074200705 0.032337926
0.022306705 -0.0070622214 0.032271072
0.027204169 -0.0063657565 0.031906158
0.03186629 -0.005838837 0.031442232
0.035524178 -0.0053858608 0.030235164
-0.045783699 -0.0047431355 0.03167928
-0.041726876 -0.0032902625 0.032265805
-0.037309583 -0.0026496076 0.032385819
-0.032469247 -0.0024784354 0.032542512
-0.027681436 -0.0022228798 0.033163838
-0.022862805 -0.0021340549 0.034129813
-0.018456407 -0.0018105081 0.034626231
-0.014127685 -0.0012486833 0.034718446
-0.0012280534 -0.0037454211 0.03473229
0.0035952749 -0.0037009523 0.034430131
0.0079619633 -0.0032146161 0.034019761
0.012913659 -0.0030587807 0.033394329
0.017715609 -0.0027893814 0.032686844
0.02248108 -0.0025829214 0.032450452
0.027330782 -0.0024504876 0.032383069
0.032307196 -0.0021879836 0.032249175
0.03729441 -0.0019153238 0.032089852
0.042220477 -0.0013685587 0.031796176
0.047164932 -0.00097015878 0.031565469
0.051698897 -0.00065140647 0.031083209
-0.036687311 0.0016595038 0.032068454
-0.032266364 0.0023024275 0.032362081
-0.02744616 0.0025986421 0.032493431
-0.022680823 0.0028609033 0.033097409
-0.017894262 0.0030433268 0.03406826
-0.013281069 0.0036078149 0.034598093
-0.0092593711 0.0037491762 0.034915276
0.0084133316 0.0017092578 0.034746382
0.01310658 0.0017199313 0.034546092
0.017872756 0.0019753452 0.033838242
0.022560369 0.0021336761 0.033364814
0.027491476 0.0023043945 0.032809097
0.032444041 0.0024335047 0.032523043
0.037469592 0.0025405458 0.032412626
0.04244763 0.0027019239 0.032353979
0.047517281 0.002770728 0.032250084
0.052458487 0.0029780939 0.032092515
0.057390552 0.0032301375 0.031859946
0.062272999 0.0036169481 0.031490251
0.067110546 0.0040336 0.031435888
0.07202749 0.0043920106 0.031045713
0.07661017 0.0046453597 0.030863818
-0.035349924 0.0051670149 0.031193458
-0.031699196 0.006659565 0.032124944
-0.027295627 0.007294293 0.032408141
-0.022469096 0.007538022 0.032411475
-0.017724479 0.0079024537 0.032763973
-0.013005659 0.0081801265 0.033766832
-0.0082117384 0.0087849246 0.034524839
-0.0037352622 0.0095114606 0.034792498
0.013836103 0.0070735584 0.034862317
0.018076759 0.0071355081 0.03464279
0.022621512 0.0070503806 0.034345105
0.027563598 0.0072605005 0.033915982
0.032544713 0.0072952732 0.033467267
0.03755343 0.0073865936 0.032949347
0.042594939 0.0074818232 0.032609783
0.047628183 0.0075573483 0.032464631
0.052627251 0.0076073753 0.032412559
0.057540681 0.0076571438 0.032368794
0.062436018 0.0076214876 0.032369275
0.067365557 0.0077773351 0.032177102
0.072277837 0.0078405729 0.032009538
0.077241562 0.0080227917 0.031625681
0.08211571 0.0086036203 0.031301051
0.086769827 0.0090694446 0.030563205
0.090101056 0.009086783 0.03018974
-0.026422005 0.011176654 0.032235108
-0.022155704 0.012116687 0.032307357
-0.017455015 0.012458699 0.032361045
-0.01271404 0.012737651 0.032499738
-0.007840422 0.01318338 0.032963961
-0.0028357799 0.013459078 0.03364411
0.00190673 0.013782097 0.034392565
0.0070325434 0.014042927 0.034746166
0.01206435 0.013329668 0.034731377
0.017817456 0.012320053 0.034695365
0.022937695 0.012551646 0.034604214
0.027624821 0.012371537 0.034327783
0.032621015 0.012479935 0.034011669
0.037618142 0.012460671 0.033644177
0.042645883 0.012456655 0.033225235
0.047679931 0.012498921 0.032871846
0.052668322 0.012563324 0.032616798
0.057567019 0.012597418 0.03249567
0.062397163 0.012643614 0.032443691
0.067318149 0.012631146 0.032384891
0.072378933 0.012626064 0.032363418
0.077413812 0.012674881 0.032151591
0.082370289 0.012699508 0.031714518
0.087424465 0.012889679 0.031430393
0.091939889 0.013256496 0.03102239
0.095651858 0.014353356 0.03073593
-0.021365337 0.015377655 0.031574003
-0.016993623 0.01612697 0.031897247
-0.012281083 0.016925002 0.032243114
-0.0075453836 0.017442729 0.032370176
-0.0025652091 0.017643591 0.032494914
0.0023087987 0.017968498 0.032949839
0.0072874404 0.018084317 0.033805486
0.012447977 0.017988326 0.034281123
0.017256908 0.018221032 0.034420948
0.022353886 0.01782695 0.034557179
0.027691446 0.017677529 0.034358248
0.032551199 0.01755278 0.034098685
0.03757593 0.017510736 0.033774398
0.04264722 0.017521052 0.033384163
0.047678106 0.017518222 0.033188857
0.052627824 0.017535865 0.032860633
0.057586141 0.017545763 0.032662082
0.062409759 0.017594839 0.032465912
0.067347735 0.017551193 0.032469541
0.072433442 0.01750556 0.032431901
0.077464119 0.01753832 0.032387838
0.082459696 0.017648326 0.032150675
0.08749982 0.017654799 0.03185188
0.092453383 0.017722612 0.03142735
0.096656419 0.017830137 0.031295143
-0.010512419 0.02016088 0.031523023
-0.0068481867 0.021176988 0.032036219
-0.0023078292 0.022106336 0.032233194
0.002610005 0.022340965 0.032341287
0.0075256308 0.022507124 0.032502804
0.012516068 0.022802144 0.032915808
0.017492659 0.023003798 0.03334105
0.022399817 0.022927441 0.033868663
0.027474273 0.022738693 0.034024805
0.03251886 0.022643525 0.033942875
0.037575681 0.022506971 0.033673327
0.042591963 0.022470836 0.033410326
0.047613069 0.022480737 0.033158612
0.052572556 0.022471298 0.032931454
0.057494566 0.022417478 0.032657146
0.062475733 0.022494979 0.03249405
0.067402549 0.022390954 0.03251129
0.072417542 0.02241325 0.032423489
0.077471204 0.022424644 0.032430045
0.082526788 0.022444149 0.032361303
0.087466896 0.022479521 0.032249607
0.092555791 0.02265146 0.031879589
0.097255379 0.022522934 0.031568378
0.10056674 0.022792015 0.030228186
-0.001232086 0.025554169 0.032122333
0.0029009844 0.026266776 0.032363653
0.0077920267 0.026948318 0.032258619
0.012590297 0.027248407 0.032314342
0.017518094 0.027399058 0.032399062
0.022387071 0.027492195 0.032524679
0.027316401 0.027691569 0.032777961
0.032404315 0.027735095 0.032954026
0.037477564 0.027649021 0.033057906
0.04256098 0.027580958 0.033111677
0.047583479 0.027536619 0.032943621
0.052646168 0.027488215 0.03270841
0.057571754 0.027404398 0.032553166
0.062412616 0.027435984 0.032537933
0.067402676 0.02738516 0.032510586
0.072425216 0.027376976 0.032443464
0.077470176 0.027379464 0.032372005
0.082511693 0.027354827 0.032272182
0.087515645 0.02738207 0.032241568
0.092454568 0.027372314 0.031969242
0.096898638 0.027162096 0.031497661
0.10035437 0.026342642 0.03022873
0.0082329195 0.030346116 0.030850479
0.013229971 0.031078476 0.0319717
0.017848575 0.031503484 0.032126315
0.022620235 0.032040633 0.032300401
0.027455281 0.032280315 0.032353662
0.032416034 0.032400496 0.032417729
0.037479144 0.032401089 0.032404575
0.042558711 0.032416299 0.032419063
0.047598962 0.032437138 0.032433834
0.052619684 0.032403711 0.032424759
0.057544772 0.032420646 0.032405507
0.062429212 0.032368232 0.032372978
0.067398645 0.032382913 0.032404687
0.072404109 0.032384083 0.032359783
0.077444412 0.032350603 0.032259855
0.082475752 0.032326244 0.032200769
0.087412581 0.032194212 0.032131821
0.092131332 0.031966221 0.031647552
0.096155263 0.031373996 0.031034602
0.023842756 0.03575132 0.030964931
0.027887452 0.03580587 0.031580124
0.032754473 0.036166873 0.03224219
0.037681513 0.036579836 0.03233793
0.042593744 0.037002198 0.032325204
0.047634982 0.037192687 0.032325566
0.052606616 0.037274051 0.032362387
0.05750978 0.037332114 0.032374054
0.062421612 0.037332658 0.032353949
0.06738276 0.037308171 0.032353912
0.07233125 0.037289701 0.03225451
0.077369504 0.037125729 0.032042027
0.082425281 0.037003711 0.031758748
0.087256357 0.036485542 0.031412438
0.09146405 0.035667613 0.030609645
0.038317859 0.040200341 0.030267484
0.042584099 0.040438902 0.030397078
0.047870208 0.04035775 0.032730062
0.052454453 0.040400408 0.032803413
0.057915408 0.040758852 0.032341179
0.062282175 0.040654756 0.032286715
0.067346677 0.040562261 0.032216787
0.072213039 0.040419247 0.031884417
0.077753052 0.04027297 0.031217005
0.080950327 0.040190347 0.030817527
-0.047083024 -0.056728564 0.035428774
-0.042873867 -0.056508482 0.035624441
-0.038835425 -0.055592559 0.03542842
-0.055854935 -0.051781297 0.035385072
-0.05158386 -0.052278578 0.03548938
-0.047185533 -0.052200403 0.035955053
-0.042629056 -0.052166693 0.036373451
-0.037882481 -0.052185122 0.035661541
-0.034239471 -0.050916839 0.035661496
-0.056166615 -0.047321394 0.035529051
-0.05224064 -0.047021829 0.0360539
-0.047536056 -0.04739289 0.036528446
-0.04256608 -0.047416341 0.036704034
-0.037729319 -0.047224779 0.03621712
-0.033055186 -0.04696022 0.036260594
-0.029222354 -0.045735825 0.035408523
-0.056470439 -0.04261386 0.035578642
-0.052373927 -0.042545371 0.035941891
-0.047382012 -0.042430568 0.036721192
-0.042438969 -0.042446364 0.037006799
-0.037608046 -0.042379145 0.036860954
-0.032588962 -0.04234568 0.036458671
-0.02828267 -0.041927598 0.036065035
-0.024297368 -0.041082673 0.03517833
-0.056184649 -0.037553933 0.03557688
-0.05244695 -0.03753506 0.03587335
-0.047305923 -0.037400704 0.036660731
-0.042500764 -0.037425485 0.037193492
-0.037571777 -0.037391335 0.037179887
-0.032594722 -0.037358295 0.036822841
-0.027663182 -0.037289683 0.036523875
-0.023340194 -0.036568128 0.035792537
-0.019046443 -0.035948891 0.035246894
-0.055642374 -0.032621969 0.035705797
-0.052338421 -0.032496721 0.035966076
-0.04723046 -0.032482464 0.036691036
-0.042478293 -0.032410838 0.037240863
-0.037538026 -0.032390606 0.037340913
-0.03249944 -0.032344513 0.037140194
-0.027488472 -0.032328486 0.03703798
-0.02260202 -0.032128841 0.036526855
-0.017986251 -0.031938646 0.035743363
-0.013758644 -0.030653058 0.035572182
-0.055706341 -0.028798947 0.035379037
-0.051908415 -0.02759202 0.035999171
-0.047365252 -0.027454678 0.036428418
-0.042486701 -0.027401714 0.03723222
-0.03746387 -0.027375849 0.037417755
-0.032405753 -0.027344177 0.037335526
-0.027468627 -0.027326519 0.037221521
-0.022539206 -0.02726192 0.037043948
-0.017639045 -0.02718661 0.036498141
-0.012980875 -0.026776066 0.035899624
-0.008312067 -0.02613225 0.035349883
-0.051610027 -0.022882424 0.035700783
-0.047321048 -0.022497043 0.036291312
-0.042329188 -0.022478106 0.037041485
-0.037420399 -0.022438165 0.037369948
-0.032415245 -0.022386555 0.037450906
-0.027370723 -0.022451401 0.03737567
-0.022468651 -0.022374086 0.037340172
-0.017635236 -0.022342643 0.03696299
-0.012695221 -0.022312908 0.036719371
-0.0079912711 -0.022133416 0.036042381
-0.0038647407 -0.021337954 0.035684101
-0.050805051 -0.018779052 0.035581343
-0.047132533 -0.017809888 0.036025465
-0.042303495 -0.017700475 0.036688533
-0.037448309 -0.017576739 0.037353799
-0.032359872 -0.017567258 0.037444782
-0.027382718 -0.017556496 0.037492834
-0.022502715 -0.017559409 0.037429951
-0.017611882 -0.017553652 0.03729276
-0.012653672 -0.017519161 0.037116949
-0.0077205487 -0.017483611 0.036766421
-0.003060817 -0.016922489 0.036240976
0.0015518654 -0.01633116 0.035579368
-0.046608869 -0.012984101 0.035851382
-0.042385921 -0.012683847 0.036221545
-0.03720367 -0.012764636 0.036962554
-0.032388218 -0.012680128 0.037334032
-0.027343702 -0.012622853 0.037469853
-0.022417255 -0.012607655 0.037441891
-0.017583653 -0.012646209 0.03748152
-0.012655939 -0.012626469 0.037406404
-0.0076561212 -0.012536374 0.037188999
-0.0026611674 -0.012505657 0.036910091
0.0022935122 -0.012211472 0.036584545
0.0067417943 -0.01158981 0.036252089
0.012262329 -0.01085327 0.035348691
0.015377869 -0.010328613 0.035330489
-0.045543231 -0.0094921617 0.035438191
-0.041848511 -0.0082179923 0.035885639
-0.037233729 -0.0077633644 0.036387477
-0.032281026 -0.007725731 0.03705626
-0.027341122 -0.0076145637 0.037386175
-0.022403769 -0.0075861663 0.037492212
-0.017586347 -0.0076336181 0.037499901
-0.012636487 -0.0076665939 0.037613351
-0.0075827087 -0.0076272455 0.037502278
-0.0025794825 -0.0075497935 0.037302259
0.0024122337 -0.0074731703 0.036840945
0.0074500437 -0.0074197049 0.036501959
0.012347084 -0.0070515187 0.036286909
0.016856799 -0.0068411366 0.035724062
0.021709869 -0.0059414059 0.035385408
0.025538586 -0.0052815806 0.035198413
-0.040917192 -0.0042900224 0.035647921
-0.036871918 -0.0031013407 0.035929412
-0.032311976 -0.0027815097 0.036670491
-0.027269181 -0.0026908098 0.037047021
-0.022403257 -0.0025633483 0.037397761
-0.017548703 -0.0025399339 0.037468262
-0.012628322 -0.0025277277 0.037744768
-0.0075933621 -0.0025530648 0.03782697
-0.0025104207 -0.0026121007 0.037699219
0.0025395413 -0.0025444312 0.037441347
0.0075028883 -0.0023393987 0.037165761
0.012515044 -0.0022582125 0.036681715
0.017403085 -0.0024002113 0.036248416
0.022270026 -0.0020024488 0.03606816
0.027384125 -0.0013715829 0.035924543
0.031674702 -0.00090943422 0.035580333
0.035289183 -0.0010501067 0.035498854
-0.036155958 0.00094506051 0.035551157
-0.031806681 0.0018133995 0.03615227
-0.027215017 0.0022304067 0.036515553
-0.022352589 0.0024694034 0.037060935
-0.017512929 0.0024525316 0.037305202
-0.012673548 0.0025651276 0.037503187
-0.0076201097 0.0025812029 0.037737541
-0.0025406994 0.0025579645 0.037996694
0.0026273294 0.0025106424 0.037857085
0.007661873 0.002477925 0.037642151
0.01265264 0.002548896 0.037472103
0.017516386 0.0026920515 0.037235048
0.022292638 0.0028561167 0.036813591
0.027257461 0.0027065291 0.0364655
0.032329015 0.0028006486 0.036273163
0.037267607 0.0031126165 0.036102917
0.042353049 0.0037902412 0.035675149
0.047294021 0.0040468927 0.035405889
0.051572382 0.0044019283 0.035498206
0.055733487 0.0046687815 0.035315674
-0.030605167 0.0058920789 0.035447687
-0.026951335 0.0069526685 0.035929412
-0.022202872 0.0070924154 0.036610648
-0.017519927 0.0074922349 0.036979116
-0.012575432 0.0075205262 0.037277803
-0.0076217498 0.0076015461 0.037459459
-0.0025511698 0.0076458682 0.03758968
0.0025149202 0.0076701567 0.037807401
0.007606715 0.0076171788 0.037756938
0.012649097 0.0075858883 0.037564885
0.01753669 0.0076136757 0.037499778
0.022411184 0.0075895893 0.037458513
0.027350143 0.0076341904 0.037331123
0.032356407 0.0078224214 0.037151206
0.037382003 0.0079021128 0.036815703
0.042392142 0.0079696905 0.036422502
0.047419321 0.0079518175 0.036088601
0.052348156 0.0080092596 0.035827231
0.057383999 0.0080877841 0.035631664
0.0621945 0.0085771242 0.035435978
0.066727959 0.0088740215 0.035417151
0.071928062 0.0096078739 0.035167605
-0.026818981 0.010434112 0.035263203
-0.021611996 0.011347897 0.035779372
-0.017205831 0.012255518 0.03631771
-0.012360846 0.012316707 0.036664262
-0.0074852942 0.012455057 0.037128966
-0.0024836645 0.012612483 0.037368726
0.0025388997 0.012639564 0.037453003
0.0075922213 0.012676069 0.037506118
0.012641801 0.012691275 0.037528269
0.017604666 0.012674217 0.037542813
0.022478497 0.012641335 0.037489858
0.027375061 0.012655213 0.037486766
0.032408863 0.012645124 0.037437372
0.03745231 0.012668879 0.037404172
0.042516306 0.012618477 0.037296142
0.047465537 0.012737099 0.037123699
0.052468684 0.012881065 0.036880333
0.057437744 0.013033507 0.036536198
0.062367253 0.013111557 0.036283195
0.067310996 0.013208075 0.03598094
0.072117254 0.013588883 0.035830747
0.076361753 0.013962758 0.035491664
-0.016099464 0.01620998 0.035477534
-0.012244888 0.017102638 0.036086082
-0.0074085807 0.017280497 0.036422011
-0.0024258005 0.017362745 0.03687923
0.0025970414 0.017513681 0.037259884
0.0076231388 0.017534308 0.037354179
0.01266362 0.017530356 0.037416704
0.017602541 0.017608626 0.037442867
0.022392087 0.01755997 0.037429579
0.027370648 0.017581863 0.037466738
0.032406725 0.017562164 0.037463605
0.037436198 0.017553538 0.03744287
0.042492803 0.017590074 0.037400197
0.047589 0.017586619 0.037306882
0.052592654 0.017614305 0.037260894
0.057539314 0.017583644 0.037186939
0.062429674 0.017588362 0.036886293
0.067284085 0.017539941 0.036540069
0.072236456 0.017644834 0.036046825
0.077162683 0.017714644 0.035668693
0.081685297 0.018555874 0.035357699
-0.010208211 0.020477654 0.036216188
-0.0066632545 0.021047084 0.036307361
-0.0022094003 0.02209691 0.036427893
0.0027027118 0.022201592 0.036699526
0.0076144375 0.022297639 0.03693242
0.012634688 0.022355715 0.037235219
0.017563662 0.022361733 0.037315872
0.022446601 0.022448855 0.037456986
0.027341776 0.022343069 0.037379403
0.032375485 0.022418972 0.03745316
0.037501246 0.02242591 0.037408996
0.042550933 0.022444589 0.037413906
0.047641154 0.022395995 0.037391528
0.05255194 0.022420842 0.03733917
0.057461023 0.022535665 0.037330925
0.062364001 0.022547429 0.037116837
0.06735383 0.022607207 0.036739793
0.072300352 0.02268724 0.036401231
0.077321492 0.022876613 0.035976686
0.082301013 0.022980863 0.035823915
0.086518534 0.022969317 0.035419844
-0.00095146341 0.025278054 0.035957646
0.0031350134 0.025955673 0.036185503
0.007762067 0.026742 0.036273777
0.012758719 0.027063919 0.036414251
0.017588582 0.027126536 0.03680782
0.022559773 0.027253078 0.037069649
0.027508073 0.027303142 0.037238792
0.032466952 0.027304048 0.037291583
0.037487999 0.027350465 0.0372735
0.042524371 0.027332157 0.037355367
0.047576182 0.027326733 0.037378792
0.052564684 0.027387081 0.037359748
0.057510808 0.027463723 0.037276529
0.062408451 0.027321544 0.037201989
0.067386389 0.027422914 0.037282031
0.072325081 0.027356016 0.036953416
0.077323593 0.027210262 0.036552735
0.08205381 0.027353248 0.03602162
0.086664662 0.027409581 0.035444431
0.013704323 0.030688474 0.035847284
0.017872367 0.031339657 0.036089309
0.022654973 0.031882122 0.036291804
0.027479853 0.032075953 0.036438357
0.032466404 0.032027543 0.036645316
0.037568171 0.032047462 0.03683421
0.042552285 0.032082349 0.036904469
0.047560543 0.032129221 0.037058793
0.052580561 0.032217514 0.037113365
0.057537768 0.032185532 0.037166644
0.062363859 0.032153625 0.037082791
0.067380704 0.03221288 0.037026834
0.072323009 0.032310043 0.036746506
0.077254586 0.032029554 0.036299746
0.081916541 0.031686965 0.035909079
0.085750021 0.031063296 0.035455786
0.024521971 0.035232212 0.035330404
0.028320597 0.035526395 0.035860192
0.032426976 0.036033545 0.035723515
0.037606493 0.036371738 0.035827763
0.042578381 0.036698122 0.035861723
0.04755633 0.036813583 0.035817359
0.052486412 0.036824979 0.035804365
0.05743286 0.036718685 0.035839029
0.062371388 0.036895502 0.035868913
0.067093886 0.036604598 0.035755716
0.071688659 0.035485774 0.036406778
0.075656503 0.035172299 0.036847897
0.047835119 0.040521555 0.035059649
0.063046172 0.040079392 0.035230752
0.067136429 0.040318616 0.035013326
-0.040776379 -0.042101264 0.040354174
-0.038800206 -0.041635614 0.040589072
-0.045934722 -0.035843212 0.04004956
-0.040576968 -0.038292009 0.04024595
-0.037168283 -0.037473783 0.040860984
-0.034119081 -0.036548827 0.040887859
-0.042323127 -0.031738959 0.040237907
-0.036731452 -0.032420725 0.040620454
-0.032819346 -0.032146439 0.041306373
-0.029025188 -0.031596497 0.041310143
-0.041205667 -0.027517384 0.040537313
-0.03723928 -0.027319213 0.040552881
-0.032263104 -0.027436389 0.041110978
-0.028662691 -0.026911447 0.041560385
-0.040794544 -0.023220545 0.040406425
-0.037422657 -0.022644961 0.040817603
-0.032361239 -0.022536673 0.040926568
-0.02753083 -0.022409311 0.04154449
-0.023543658 -0.021266781 0.041817605
-0.036431309 -0.018344944 0.040799923
-0.032235906 -0.017490396 0.04122242
-0.027392359 -0.017496338 0.041041754
-0.02256663 -0.017359165 0.041615531
-0.018146802 -0.016615823 0.040963747
-0.014936125 -0.016519707 0.040361926
-0.035117082 -0.013640566 0.040390681
-0.031629391 -0.013005644 0.04098393
-0.0273262 -0.012590876 0.041038767
-0.022410186 -0.012502093 0.041225083
-0.017763831 -0.012223979 0.041297544
-0.012832322 -0.011738187 0.040838722
-0.0086739538 -0.01075653 0.040538531
-0.0043077827 -0.010075459 0.040137034
-0.030566875 -0.0085807806 0.040400159
-0.026973616 -0.0078835748 0.041027565
-0.022380389 -0.0077461358 0.041502126
-0.017436888 -0.0074655283 0.04136217
-0.012685989 -0.0073441924 0.041411877
-0.007598171 -0.0072272141 0.041502569
-0.0031652343 -0.0062773074 0.041397199
0.0006810943 -0.0056044874 0.040390283
-0.025705954 -0.0043251403 0.040684283
-0.021998875 -0.0029797675 0.040726256
-0.017417215 -0.0028565356 0.041585382
-0.012566946 -0.002477844 0.041683502
-0.0076625654 -0.0023807094 0.041511036
-0.002500501 -0.0025236881 0.041755635
0.0023259749 -0.0021693641 0.041866865
0.0068542161 -0.0010556102 0.041264758
0.01107621 -0.00033967482 0.040595431
-0.020399749 0.00075037166 0.040485211
-0.017009815 0.0014066006 0.040562112
-0.012175478 0.0018584387 0.041287262
-0.007311279 0.0020793548 0.041800942
-0.0025618027 0.0026695877 0.041676022
0.0024680013 0.0026985875 0.041398518
0.0075143971 0.002456753 0.041552372
0.012298516 0.0029319627 0.04111449
