# .PCD v0.7 - Point Cloud Data file format
VERSION 0.7
FIELDS x y z
SIZE 4 4 4
TYPE F F F
COUNT 1 1 1
WIDTH 1282
HEIGHT 1
VIEWPOINT 0 0 0 1 0 0 0
POINTS 1282
DATA ascii
-0.056308709 -0.031415753 0.012842523
-0.05271716 -0.032663457 0.012567394
-0.04815815 -0.033421084 0.012055739
-0.042064119 -0.031912193 0.012737483
-0.037584655 -0.032685939 0.012261698
-0.032759622 -0.033243414 0.01160478
-0.027391179 -0.033693578 0.011017435
-0.022688847 -0.033864275 0.010933735
-0.017448511 -0.033602089 0.011134188
-0.012371483 -0.033220924 0.011590893
-0.0075634811 -0.032439087 0.012471437
-0.0036112557 -0.031348109 0.013183475
0.0037288528 -0.033936113 0.012634682
0.007366396 -0.032420695 0.012616736
0.010905532 -0.031322628 0.013308477
-0.060864743 -0.026324274 0.01324938
-0.057557549 -0.027460646 0.012576345
-0.052951124 -0.027912617 0.011816336
-0.047270462 -0.027100025 0.012641884
-0.042828482 -0.027879044 0.011680424
-0.038966563 -0.028964734 0.010893331
-0.010362158 -0.029755902 0.010284625
-0.0066444981 -0.028731652 0.010897052
-0.0022066194 -0.027707975 0.012140869
0.0015673026 -0.026321119 0.013333145
0.0090394309 -0.028612878 0.012501329
0.011911338 -0.027163006 0.012712528
0.0152172 -0.025595529 0.013611783
-0.06180251 -0.022094443 0.012672814
-0.058476727 -0.023288796 0.012150827
-0.051668487 -0.022065459 0.012768429
-0.04794972 -0.02269358 0.011781097
-0.043946721 -0.024034824 0.010675143
-0.0010908898 -0.02419023 0.010671712
0.0030569872 -0.023014735 0.011929085
0.0065670419 -0.021815632 0.013063037
0.013618999 -0.022838391 0.012697709
0.016281674 -0.022019822 0.012928054
-0.065560326 -0.016648293 0.012516152
-0.062953986 -0.017661583 0.012506835
-0.056379899 -0.017085265 0.011836343
-0.052580383 -0.017735347 0.01236491
-0.048985194 -0.018394208 0.010847569
0.0040844567 -0.019063994 0.010707107
0.0078247758 -0.017688252 0.012193687
0.0123904 -0.017560229 0.013231246
0.016982911 -0.017499164 0.012735392
0.020436255 -0.015300033 0.013898171
-0.066012576 -0.012203015 0.012735005
-0.063690506 -0.012697536 0.012442403
-0.05694158 -0.012382634 0.012382832
-0.053284306 -0.013052016 0.011853658
-0.048750207 -0.014717439 0.01004428
0.0088389311 -0.012784146 0.011295388
0.011126654 -0.012080525 0.013164369
0.018071346 -0.012738536 0.012614664
0.020847986 -0.011552583 0.013383697
-0.066177085 -0.0074997214 0.012718931
-0.063617565 -0.0078202859 0.012253462
-0.057202727 -0.0075094337 0.012413743
-0.053826071 -0.0077634081 0.011057552
0.0092297904 -0.0077423537 0.01084149
0.011566151 -0.00756635 0.012668685
0.018743992 -0.0077594011 0.012598331
0.02099577 -0.0074089607 0.01283313
-0.06648837 -0.0024340509 0.012666052
-0.063799351 -0.0027656597 0.012003783
-0.057440042 -0.0024980647 0.012371584
-0.054113843 -0.0025804807 0.01077197
0.0093378872 -0.0030153675 0.010521196
0.011806207 -0.0025458599 0.012643836
0.018858962 -0.0026751265 0.012671736
0.021219885 -0.0025372612 0.012890415
-0.066222869 0.002308382 0.012639424
-0.064089693 0.0029126566 0.012268614
-0.057395831 0.0024220427 0.01249782
-0.05427419 0.0022115258 0.010799341
0.0094666164 0.0025845985 0.010702411
0.011577419 0.0024274038 0.012502837
0.018790403 0.0026460167 0.012610332
0.021127729 0.0024193327 0.012944249
-0.066072717 0.0073180194 0.012874069
-0.063803963 0.0079328595 0.012395497
-0.056708682 0.0074405959 0.012823505
-0.054057736 0.0077671371 0.010808237
0.0089685963 0.0080466755 0.011155982
0.011103875 0.0071989517 0.012869271
0.018165175 0.0076086684 0.012470686
0.021210255 0.0065398444 0.013162822
-0.06568031 0.011768743 0.013156443
-0.063035525 0.012759051 0.012486144
-0.056464177 0.01207327 0.013018361
-0.053347044 0.012852967 0.012032427
0.0049789287 0.014462 0.010686521
0.0082071256 0.012745568 0.01216169
0.012606369 0.012512432 0.013035295
0.017153233 0.012493991 0.012583837
0.021092039 0.012164613 0.014663839
-0.065075837 0.015525131 0.01374686
-0.061815605 0.017279807 0.012645403
-0.0586401 0.018323535 0.012352784
-0.05230898 0.017552651 0.012761548
-0.048750866 0.01844414 0.011118698
0.0038477096 0.018453605 0.010990396
0.0067981305 0.017182052 0.012840888
0.013887594 0.017944308 0.012636393
0.016465159 0.017283905 0.012765814
0.020672077 0.01652612 0.014665969
-0.060829043 0.021512507 0.01313247
-0.05774083 0.022697879 0.012594168
-0.052380387 0.022260316 0.013115126
-0.047543563 0.022541177 0.012426817
-0.043497875 0.023542088 0.010683722
-0.039488032 0.024973292 0.010159348
-0.0013804795 0.023647085 0.010801355
0.002504644 0.02245337 0.012349742
0.0085541606 0.023432627 0.012945925
0.012394073 0.022446023 0.012661467
0.015821462 0.021615345 0.013660434
-0.060076058 0.025122754 0.013650434
-0.056547776 0.026583251 0.012736611
-0.052916091 0.027906524 0.012563273
-0.047050856 0.02730285 0.01327954
-0.04245203 0.027276287 0.012507614
-0.038021315 0.028574046 0.011273171
-0.033072677 0.029625846 0.010528475
-0.015408328 0.029543895 0.010013193
-0.011450235 0.029362317 0.010966541
-0.0070525273 0.028404197 0.01169572
-0.0024128123 0.026970463 0.012434082
0.0025315972 0.027573967 0.012763609
0.0077982619 0.027695354 0.012646164
0.011142573 0.026702326 0.012882532
-0.055234645 0.030042304 0.014425735
-0.051644858 0.031318832 0.012787295
-0.047755834 0.032653056 0.012584018
-0.043390334 0.033874545 0.012780667
-0.036995687 0.031252544 0.013295994
-0.032603163 0.032206964 0.012336212
-0.027415929 0.033122398 0.012297789
-0.022173898 0.033361141 0.012249216
-0.017429426 0.032954294 0.012244656
-0.012635696 0.032196678 0.012502008
-0.0080752103 0.031089582 0.013192
-0.0015865865 0.033873428 0.012571545
0.0025097709 0.032340601 0.012643019
0.0066347956 0.031182017 0.012716207
-0.046644386 0.035526324 0.012692008
-0.042115964 0.036546323 0.012608364
-0.037546154 0.037841793 0.012615399
-0.032673616 0.038845398 0.012506968
-0.027514927 0.038940672 0.012542137
-0.022429751 0.038434692 0.012936231
-0.017436979 0.038923703 0.012716337
-0.012447547 0.03877515 0.012598339
-0.0073922249 0.037894331 0.012666785
-0.0029361912 0.036536545 0.012633547
0.0011055385 0.035504442 0.012672548
-0.036456678 0.040385321 0.013367968
-0.031910732 0.041084412 0.013095202
-0.027352897 0.041224729 0.012574296
-0.022527086 0.041309148 0.012696804
-0.017592775 0.041343521 0.012850509
-0.012859964 0.041031688 0.012825398
-0.0084363986 0.040572077 0.012540343
-0.041471958 -0.051323038 0.018626377
-0.039203506 -0.050565995 0.018053271
-0.048055585 -0.046494782 0.019241491
-0.041981149 -0.046899837 0.019019237
-0.037617009 -0.046983354 0.018309271
-0.032418068 -0.046192158 0.017525209
-0.027367914 -0.046001814 0.017348599
-0.022613732 -0.046068247 0.01741047
-0.017603477 -0.045941718 0.017241964
-0.01323809 -0.045849696 0.017336866
-0.0089410385 -0.045341741 0.015989993
-0.050558954 -0.041456137 0.018570116
-0.047623817 -0.041886896 0.018364787
-0.042564355 -0.042611089 0.018173547
-0.037243944 -0.043291476 0.017615756
-0.032444976 -0.043380786 0.017618479
-0.027430516 -0.04362569 0.017708167
-0.022518191 -0.043748122 0.017638123
-0.01746197 -0.043714575 0.017582882
-0.012465123 -0.042970479 0.017554795
-0.0076914737 -0.042182703 0.017565692
-0.0030184397 -0.04140472 0.017571356
0.00097777986 -0.040389676 0.016859094
-0.055215012 -0.035327334 0.016181029
-0.051643625 -0.036777388 0.017352147
-0.047802679 -0.037570059 0.01765815
-0.043372732 -0.038298581 0.017081792
-0.03717421 -0.035975635 0.017957712
-0.032406624 -0.03718878 0.01737215
-0.027495097 -0.038298942 0.017209463
-0.022612527 -0.038688749 0.017239058
-0.017380103 -0.038191285 0.017193636
-0.012475988 -0.037232544 0.01746317
-0.0075347708 -0.037316196 0.017751167
-0.0021534432 -0.038279437 0.017669449
0.0023285856 -0.037048157 0.017475916
0.0061627724 -0.03578376 0.016949231
-0.056330584 -0.031674568 0.017293807
-0.052776959 -0.032467775 0.017517503
-0.047467604 -0.032231983 0.017804483
-0.042487353 -0.032680642 0.017289249
-0.03849332 -0.034329802 0.017049823
-0.034997396 -0.034449406 0.015131065
-0.0065855267 -0.03398262 0.017034896
-0.0027766642 -0.032063454 0.01742004
0.0035016018 -0.033429611 0.01770485
0.0073737558 -0.032284506 0.017493395
0.01117621 -0.031354506 0.01687122
-0.060926683 -0.026497187 0.017348778
-0.057553828 -0.027468575 0.017503554
-0.05254297 -0.027778918 0.017934548
-0.048072327 -0.027843511 0.017264983
-0.044467442 -0.029440016 0.015604575
-0.00074129569 -0.029366737 0.017045997
0.0024652516 -0.027282007 0.017440571
0.0086718583 -0.028402941 0.017673913
0.012149382 -0.027144682 0.017435629
0.015609412 -0.025789358 0.017157979
-0.065180466 -0.020098889 0.018533733
-0.061893303 -0.022141201 0.017520875
-0.058400705 -0.023065975 0.01786593
-0.052696053 -0.02265933 0.017326176
-0.049544938 -0.024370641 0.015871607
0.0043225321 -0.024045577 0.016638443
0.0069893003 -0.022259615 0.017102258
0.013524896 -0.022792177 0.01758961
0.016647818 -0.022291835 0.017594643
0.020571897 -0.020372286 0.017301098
-0.065857314 -0.016915588 0.017879153
-0.06293387 -0.017740358 0.017623156
-0.05641 -0.017294755 0.017696165
-0.054245811 -0.018315911 0.016344711
0.0090964837 -0.018841265 0.017278945
0.012379562 -0.017667072 0.017340995
0.017225608 -0.017501524 0.017644225
0.021184087 -0.016888997 0.017605882
-0.066379324 -0.012316107 0.017623279
-0.0638659 -0.012868076 0.017765058
-0.057602733 -0.012619453 0.017576974
-0.054954447 -0.014116555 0.015633862
0.012387242 -0.012551812 0.017180407
0.018096354 -0.012710872 0.017488688
0.020991137 -0.012528569 0.017528338
-0.066643856 -0.0075317225 0.017605728
-0.064031787 -0.0076684328 0.017816732
-0.058689237 -0.007566845 0.017214829
0.013372719 -0.0077049346 0.017112214
0.018573334 -0.0076712943 0.017612107
0.020982625 -0.0074092587 0.017223287
-0.066681638 -0.0025968309 0.017584404
-0.063276514 -0.0025702561 0.017529543
-0.05910226 -0.0026455133 0.017105691
0.01357937 -0.00272358 0.017077319
0.018831292 -0.002500783 0.017654741
0.021191165 -0.0024176408 0.017221767
-0.066682883 0.0025304023 0.017545531
-0.063217439 0.0026180642 0.017792564
-0.058983982 0.0026270882 0.017028116
0.013251756 0.0024107448 0.016637336
0.018607145 0.0026187606 0.017611334
0.02108337 0.002462547 0.017363284
-0.066454731 0.0073317937 0.017381007
-0.063687481 0.0078205774 0.017656386
-0.05849462 0.0077231466 0.01725118
0.01216353 0.0076432903 0.017129038
0.018119184 0.0076329135 0.017585453
0.021204716 0.0072934949 0.017348114
-0.065884613 0.011931406 0.017414384
-0.063160323 0.012762773 0.017640488
-0.057246953 0.012464961 0.017534833
-0.054567061 0.013294473 0.015432434
0.0094526839 0.013358026 0.016959189
0.011999036 0.012856819 0.017511729
0.017337624 0.012592478 0.017456526
0.021076784 0.01200906 0.017045775
-0.065449253 0.016092913 0.017134639
-0.062064324 0.017312786 0.017511956
-0.058261607 0.018034501 0.017816827
-0.053520665 0.017965276 0.016682912
0.0078747449 0.017638193 0.017649496
0.013727401 0.017999416 0.017557345
0.017217644 0.01736998 0.017442286
0.020267382 0.016602665 0.016234618
-0.061236631 0.021730876 0.017221252
-0.05777961 0.022815939 0.017603988
-0.052093521 0.02214588 0.017692693
-0.048796125 0.023674624 0.016965421
0.0037781042 0.023003921 0.017112147
0.0076389485 0.022490861 0.017770208
0.012416082 0.022388352 0.017457329
0.016257921 0.021288654 0.017083123
-0.056653328 0.026556915 0.01747548
-0.052994542 0.027831556 0.017598486
-0.047256052 0.027133094 0.017654357
-0.043415733 0.028572518 0.017324926
-0.0056183301 0.029563274 0.015380473
-0.0024929589 0.02848736 0.016865455
0.0031533495 0.028309947 0.01747288
0.0077690473 0.027563162 0.017535819
0.011137995 0.026245931 0.01738584
-0.051463135 0.031440925 0.017520176
-0.047830462 0.03274563 0.017526869
-0.042902675 0.033191133 0.017656514
-0.037469383 0.032040026 0.017562287
-0.032591216 0.033747979 0.017502548
-0.027608654 0.034527525 0.017162487
-0.022043919 0.034587864 0.017174078
-0.017188326 0.034224894 0.017556123
-0.01252156 0.033476412 0.017551024
-0.0076377825 0.031688817 0.017475905
-0.0019862549 0.03355889 0.017658651
0.0026168996 0.032385107 0.017572178
0.0067412369 0.031200117 0.017409535
-0.046670903 0.03603635 0.017638959
-0.042279746 0.036841135 0.017634379
-0.037706945 0.037789308 0.017537976
-0.032528926 0.038757719 0.017582111
-0.027487945 0.038366102 0.017582165
-0.022376135 0.038014565 0.017638288
-0.017442876 0.038467359 0.017639661
-0.01239969 0.038609218 0.017593531
-0.0074133119 0.037685368 0.017571568
-0.0028689979 0.036769845 0.017717861
0.0014247845 0.036258139 0.017526386
-0.040743776 0.040366329 0.016726023
-0.037003167 0.040654019 0.017853649
-0.032352563 0.041104697 0.017496588
-0.027458217 0.041333675 0.017571598
-0.022533434 0.041508559 0.017483614
-0.017726135 0.041576184 0.017536007
-0.012989998 0.041241217 0.01759927
-0.0083898092 0.040746313 0.01781062
-0.0021093509 0.040130481 0.017912848
-0.050433502 -0.065374836 0.02468116
-0.048471827 -0.065539598 0.02425467
-0.05532375 -0.060619265 0.02415668
-0.052620802 -0.062808119 0.023219569
-0.049143389 -0.064364359 0.023125887
-0.05629636 -0.05891354 0.024204105
-0.043188158 -0.050251719 0.020215813
-0.047514595 -0.047313698 0.020960998
-0.042326674 -0.047073014 0.020886676
-0.038242977 -0.046096541 0.021964369
-0.031919271 -0.045603447 0.022493133
-0.027661603 -0.045903444 0.022509532
-0.022827636 -0.045659427 0.022381475
-0.017527942 -0.045486502 0.022478797
-0.013111575 -0.045585494 0.022345847
-0.0099551352 -0.04525115 0.021487314
-0.046918921 -0.041864175 0.021808
-0.042504314 -0.042335149 0.02245963
-0.0375867 -0.042997282 0.022590041
-0.032404374 -0.042947799 0.022538707
-0.027477568 -0.043391384 0.022518978
-0.022448374 -0.043603692 0.022487575
-0.017486535 -0.043335937 0.022474643
-0.012507129 -0.042738087 0.02247436
-0.0077528353 -0.041928686 0.022344194
-0.0033588749 -0.041050114 0.022257354
0.00055875961 -0.040427461 0.020407096
-0.051560707 -0.036391009 0.022067105
-0.047616191 -0.03756943 0.022521302
-0.043246966 -0.03826436 0.023089547
-0.037420407 -0.036333624 0.022509446
-0.032555535 -0.03779915 0.022382939
-0.02771057 -0.038774811 0.022533495
-0.022475047 -0.039107483 0.022905974
-0.017313849 -0.038924612 0.022209343
-0.012251391 -0.037903745 0.022571711
-0.0073358719 -0.037658852 0.022556469
-0.002314172 -0.037984617 0.02247026
0.0020930446 -0.036885135 0.022373255
0.005616013 -0.03560283 0.022423308
-0.056242984 -0.030960657 0.02229405
-0.052503318 -0.032313388 0.022436809
-0.047899783 -0.032406729 0.022620453
-0.042794622 -0.033287566 0.022407964
-0.03889202 -0.034617823 0.022269333
-0.0061791884 -0.034533057 0.022091115
-0.0024075159 -0.032752942 0.022398429
0.0031593372 -0.033209756 0.022659931
0.0072481921 -0.032165531 0.022376474
0.010763997 -0.030806191 0.02213609
-0.060636539 -0.025923196 0.022134503
-0.05736747 -0.027256042 0.022476753
-0.052724041 -0.02791276 0.022612872
-0.048414458 -0.028676303 0.02241363
-0.00031540773 -0.029603859 0.021559162
0.0026374289 -0.027663447 0.022407502
0.0084727909 -0.028304735 0.022564271
0.011889933 -0.027065502 0.022435224
0.015125734 -0.025207601 0.022581024
-0.065108217 -0.020106958 0.024063833
-0.061697062 -0.022035509 0.022580836
-0.058063485 -0.022729263 0.022649949
-0.053559434 -0.02294999 0.022391776
0.004527369 -0.024524806 0.022670129
0.006956826 -0.022360606 0.022338016
0.013341273 -0.022790097 0.022593599
0.016094439 -0.021797093 0.022173204
-0.065654315 -0.016806787 0.022073351
-0.06257996 -0.017550712 0.022487322
-0.05719725 -0.017825525 0.022639466
-0.054805618 -0.019344611 0.021483103
0.0091933217 -0.018292174 0.022441886
0.013593749 -0.017974677 0.022753229
0.016911702 -0.01743266 0.022426663
0.020333631 -0.015549541 0.020169199
-0.066196844 -0.012340982 0.022454124
-0.063300163 -0.012761038 0.022624262
-0.058614936 -0.012520682 0.02244799
0.012255528 -0.012606815 0.022231473
0.017692655 -0.012705526 0.022475768
0.020352142 -0.012448242 0.022079093
-0.066401072 -0.0074362955 0.022432402
-0.063338324 -0.0075525632 0.02264861
-0.059416346 -0.0077617685 0.022432109
0.013501277 -0.0072081061 0.022833778
0.01820769 -0.0075805937 0.022477752
0.020804197 -0.0070307804 0.022259999
-0.066530623 -0.0025620954 0.02244816
-0.063023031 -0.0025717628 0.022656916
-0.059650373 -0.0026879164 0.022185167
0.01389394 -0.0025690764 0.022812914
0.018322976 -0.0025264865 0.022573523
0.021042708 -0.0025794453 0.022362622
-0.066229902 0.0024790983 0.02242404
-0.062830403 0.0025747258 0.022657553
-0.059646819 0.002528829 0.022196185
0.013602277 0.0024761062 0.022680489
0.018361717 0.0025355467 0.022521889
0.021212418 0.0023737727 0.022447793
-0.066012606 0.0073180394 0.022335891
-0.063303813 0.0077354326 0.022559296
-0.059113778 0.0076780082 0.022626786
0.012453153 0.0078408755 0.023018513
0.017832298 0.0076194936 0.022474822
0.020798111 0.0070744008 0.022412099
-0.065595306 0.011534307 0.022184202
-0.062721089 0.012788178 0.022466797
-0.05791086 0.012748962 0.022790788
0.0095209442 0.014064815 0.022288967
0.01292324 0.013190777 0.022521341
0.016998664 0.01235954 0.022323102
0.020232975 0.010875348 0.021940613
-0.061768953 0.01710427 0.022351313
-0.057960976 0.017699981 0.022625145
-0.053938814 0.018575108 0.022468125
0.0080727469 0.017688684 0.02206526
0.013383941 0.017745389 0.022551268
0.016324185 0.017068734 0.02221659
-0.060627658 0.021093871 0.022449706
-0.057473361 0.022523213 0.022504019
-0.052579705 0.022395512 0.022652188
-0.049053352 0.023874817 0.022510722
0.0033942212 0.023421777 0.022557333
0.0081470199 0.022819441 0.022615103
0.012010321 0.02221063 0.02237384
0.015579844 0.020403817 0.021612657
-0.0565487 0.026210496 0.022311512
-0.052847292 0.027554084 0.022549735
-0.047592442 0.027308721 0.02253948
-0.043239221 0.028819896 0.022499166
-0.0054583619 0.029727543 0.024475303
-0.0021527163 0.02834174 0.022741791
0.0029084692 0.027824754 0.022680016
0.0075313146 0.027358497 0.022400178
0.010875629 0.026261518 0.022223702
-0.051298805 0.031384721 0.022321576
-0.047684919 0.032482412 0.022440424
-0.042780537 0.033209946 0.022599705
-0.037967626 0.032175619 0.022505606
-0.032464407 0.033636115 0.022498328
-0.027598105 0.034468066 0.022632331
-0.02262613 0.034634296 0.022529365
-0.017078687 0.034301706 0.022500932
-0.012599648 0.033574667 0.022564439
-0.0075084204 0.032297716 0.022441987
-0.0020179716 0.033487584 0.02255369
0.002273039 0.032137468 0.022356877
0.006043152 0.031092815 0.022306789
-0.0464136 0.035755318 0.021915959
-0.042099327 0.036703404 0.02241629
-0.03754086 0.037621189 0.022425275
-0.032626491 0.038552847 0.0224385
-0.027522044 0.038582783 0.022604153
-0.02243948 0.038234245 0.022422722
-0.017672036 0.038197767 0.022584746
-0.012456018 0.03832151 0.022451552
-0.0075645228 0.037467211 0.022522686
-0.0030088231 0.036591206 0.022269815
0.00059120363 0.035667919 0.021072589
-0.040454708 0.040239815 0.022593116
-0.037191406 0.040526252 0.022601129
-0.032283526 0.041066546 0.02233981
-0.027511271 0.041029684 0.022327123
-0.022434494 0.041198943 0.02237458
-0.017547142 0.041368533 0.022281213
-0.012926042 0.040965881 0.022278966
-0.0079194494 0.040559292 0.022108126
-0.004917495 0.040158883 0.020552764
-0.055533208 -0.065464534 0.029104136
-0.051893063 -0.065731183 0.027985152
-0.047808137 -0.066296607 0.027669528
-0.044736672 -0.067423753 0.029386859
-0.056047 -0.061828218 0.02815116
-0.053171176 -0.063621826 0.027312266
-0.049431134 -0.064731427 0.026024556
-0.056809921 -0.059251942 0.026844967
-0.037280228 -0.045943286 0.027364906
-0.032123391 -0.045515101 0.027356708
-0.027567256 -0.045585301 0.027468469
-0.02282347 -0.045498654 0.027295241
-0.017639168 -0.045435391 0.027489278
-0.013250443 -0.045429982 0.027146552
-0.046713635 -0.040793378 0.027270921
-0.042143945 -0.041918788 0.027369665
-0.037545983 -0.042694941 0.027449939
-0.032527041 -0.042885091 0.027491765
-0.027401127 -0.043168645 0.027426211
-0.022448197 -0.043444775 0.027418295
-0.017487559 -0.043373212 0.027481847
-0.012501222 -0.042698685 0.027415639
-0.0077966298 -0.041748043 0.027369551
-0.0033497487 -0.040728547 0.027684921
0.00027813538 -0.040006973 0.029516341
-0.051133625 -0.035999931 0.02751248
-0.047624815 -0.037505638 0.027500726
-0.042735789 -0.038416509 0.027255526
-0.037632402 -0.037067328 0.027521392
-0.032585435 -0.037911378 0.027237881
-0.027299892 -0.038759384 0.027768532
-0.022574311 -0.039022941 0.027776426
-0.017548893 -0.038809087 0.027357651
-0.012412501 -0.038106892 0.027394678
-0.0073151845 -0.037780043 0.02753906
-0.0023079994 -0.037969656 0.027451761
0.0020875866 -0.036777183 0.027415562
0.0057560992 -0.035535097 0.02746886
-0.056295097 -0.031287152 0.027600266
-0.05256955 -0.032310165 0.02741665
-0.047835771 -0.032368124 0.027371872
-0.042710785 -0.033523925 0.0275553
-0.039224405 -0.034654528 0.027466938
-0.0059191133 -0.034522653 0.027022356
-0.0022776094 -0.032892745 0.027387891
0.0029400464 -0.032997262 0.027493933
0.0073073064 -0.032204952 0.027417876
0.010508176 -0.031011257 0.027186316
-0.06067339 -0.026097031 0.027476469
-0.057286672 -0.02716287 0.027379161
-0.052713469 -0.027661702 0.027380625
-0.048611771 -0.028723195 0.027213177
-0.00018431553 -0.029863093 0.027966963
0.0029059036 -0.02780343 0.027653245
0.0084366994 -0.02812588 0.02737082
0.011756633 -0.027011678 0.027420016
-0.061575346 -0.022058954 0.027450919
-0.057841204 -0.022633929 0.027466301
-0.053656176 -0.023317466 0.027510973
0.0046076747 -0.024393933 0.027369855
0.0068528834 -0.02230699 0.027411155
0.01323593 -0.022759788 0.027429795
0.016094007 -0.021663187 0.027279004
-0.065464109 -0.016898297 0.02774594
-0.062559567 -0.017549748 0.027396832
-0.05766879 -0.017760554 0.027513048
-0.05477431 -0.019752044 0.027236819
0.0091074174 -0.017832836 0.027833892
0.013753762 -0.017927554 0.027413111
0.016746968 -0.017269168 0.027471388
-0.066009909 -0.012251621 0.027402367
-0.063115753 -0.012652841 0.027486281
-0.058777221 -0.012721232 0.027310722
0.0099604726 -0.014666881 0.026534868
0.011999252 -0.012510176 0.02784659
0.017463528 -0.012560471 0.02735031
0.020042837 -0.010003 0.026360879
-0.066229403 -0.0074460981 0.027383957
-0.062982082 -0.0076153534 0.027546328
-0.059405126 -0.0077394741 0.027491575
0.01313355 -0.0075082928 0.027249649
0.018036904 -0.0076485821 0.027327407
0.020679181 -0.0065508722 0.026965758
-0.066307671 -0.0025343394 0.027428756
-0.062955342 -0.0025049672 0.027427075
-0.059664417 -0.0026082341 0.027878806
0.013834357 -0.0023257565 0.027488451
0.018316571 -0.0024942555 0.027408844
0.020511484 -0.0031970334 0.027271075
-0.066103168 0.002544519 0.027420642
-0.062987737 0.002577577 0.027449792
-0.059558369 0.0030515485 0.027730001
0.013653827 0.0024482897 0.027455501
0.018340912 0.0025805701 0.027332706
0.020406708 0.0026555425 0.02689294
-0.065788776 0.0073319515 0.027415043
-0.062984452 0.0076392125 0.027403222
-0.059136104 0.0078255115 0.027588071
0.012456645 0.0075473296 0.027420631
0.017749203 0.0076019797 0.027384654
0.020394115 0.0072166077 0.026590167
-0.065430619 0.011472453 0.027323693
-0.062641822 0.012664719 0.027305733
-0.058002423 0.012758146 0.027594058
0.0094612231 0.013823024 0.027356539
0.012812059 0.012736919 0.027324606
0.016837703 0.012438938 0.027393414
-0.061312512 0.017098781 0.027354954
-0.05780296 0.01779828 0.02747941
-0.054029163 0.018676698 0.027523762
0.0048917751 0.019878099 0.026174195
0.0076402011 0.017400578 0.027791174
0.013383956 0.017779898 0.027356679
0.016068114 0.016689999 0.027518883
-0.060481571 0.021167759 0.02709646
-0.057469685 0.022528352 0.027362114
-0.052497711 0.022518536 0.027380496
-0.049233995 0.024103779 0.027338611
0.0034315574 0.023216918 0.027737586
0.0083998172 0.023100467 0.027477359
0.011939822 0.022020321 0.027504107
0.015261936 0.020288294 0.027025325
-0.056390505 0.026375711 0.027406696
-0.05278654 0.027579365 0.02741768
-0.047747646 0.02731953 0.027368216
-0.043326803 0.028773062 0.0274386
-0.0058501307 0.029695692 0.027349554
-0.0022713407 0.028262932 0.027625715
0.0029463242 0.027900819 0.027511768
0.0073020291 0.027262829 0.027427098
0.010633947 0.025771294 0.027372861
-0.051380519 0.03103154 0.027395191
-0.04748828 0.032307986 0.027423043
-0.042708591 0.033226524 0.027538143
-0.037428431 0.032224435 0.027367441
-0.032575026 0.033527788 0.027546424
-0.027706554 0.034249414 0.027629759
-0.022628885 0.034484114 0.0275128
-0.017366014 0.034420777 0.027416345
-0.012353274 0.033562325 0.027399953
-0.0072918786 0.032381233 0.0275805
-0.0021528667 0.033174872 0.027465329
0.0020865467 0.031955652 0.027372377
0.0060530216 0.030655654 0.027096489
-0.046198726 0.035346769 0.027470579
-0.042019546 0.036564954 0.027473675
-0.037487507 0.037513305 0.027417222
-0.03254319 0.038457334 0.02740055
-0.027414449 0.038582653 0.027496831
-0.022302546 0.038146157 0.02745208
-0.017519817 0.038251992 0.027537286
-0.012464107 0.03812176 0.027391614
-0.0077019096 0.037140626 0.02742788
-0.0029447023 0.036095522 0.027434435
0.00059568771 0.035421371 0.027949426
-0.036650822 0.040252704 0.027279522
-0.03206937 0.040831234 0.027580233
-0.027322328 0.041239511 0.027464628
-0.022378305 0.041087821 0.027347757
-0.017638253 0.041095473 0.027421923
-0.012939222 0.040810157 0.027541127
-0.0093181562 0.04033418 0.027081687
-0.0557069 -0.065505788 0.033136927
-0.052223898 -0.066196695 0.032657363
-0.047645792 -0.067331001 0.032655526
-0.044349555 -0.067173585 0.0327393
-0.056594353 -0.06252721 0.032601397
-0.05373174 -0.064162686 0.032154504
-0.057531562 -0.059681024 0.03116058
-0.036807161 -0.045970064 0.032129832
-0.031907659 -0.0454771 0.032478403
-0.027339559 -0.045548975 0.03248366
-0.02234235 -0.045622189 0.032587513
-0.017316572 -0.04553527 0.032493595
-0.013330877 -0.045411047 0.032645386
-0.046430156 -0.040505622 0.032586124
-0.042073868 -0.041766565 0.032456283
-0.037545409 -0.042732101 0.03248674
-0.032415044 -0.042968929 0.032455552
-0.027499294 -0.043234915 0.032433618
-0.022390259 -0.043515854 0.032433808
-0.01743762 -0.043448862 0.032481037
-0.012491924 -0.042816732 0.032408625
-0.0077535231 -0.042000365 0.032466505
-0.0031775744 -0.040899727 0.032360435
0.00013784438 -0.040184513 0.03238637
-0.051293634 -0.036318969 0.032452907
-0.04763595 -0.037518933 0.032400936
-0.042846415 -0.038606964 0.032411203
-0.037430409 -0.036861863 0.03237452
-0.032278374 -0.038239822 0.032509111
-0.027544064 -0.038862735 0.032639712
-0.022479758 -0.038954381 0.032347232
-0.017406121 -0.038593985 0.03256207
-0.012496793 -0.037875742 0.032620855
-0.0075009582 -0.037671022 0.032493379
-0.0022570968 -0.038019344 0.032389998
0.0020923063 -0.03681336 0.032461669
0.005524138 -0.035400126 0.032202799
-0.056112383 -0.031595323 0.032534834
-0.05254586 -0.032378826 0.032440439
-0.047832545 -0.032345418 0.032695677
-0.042804316 -0.033478402 0.032498095
-0.039446011 -0.034524016 0.03281343
-0.016049324 -0.034581427 0.034616318
-0.012263772 -0.033755653 0.034576494
-0.006883665 -0.03256062 0.033359006
-0.002166711 -0.032975625 0.03235491
0.0029504469 -0.033130474 0.032486428
0.0072556608 -0.032154188 0.032431621
0.010492364 -0.030664669 0.032529254
-0.060638763 -0.025706481 0.032379899
-0.057277344 -0.027246125 0.032491889
-0.052774563 -0.027647844 0.0324613
-0.048921876 -0.028904406 0.03268886
-0.0055391542 -0.029462181 0.034001786
-0.003168521 -0.028503994 0.034176566
0.0032013888 -0.027810419 0.03247907
0.0084034316 -0.028098464 0.032452829
0.011752234 -0.026907269 0.032447543
-0.061522588 -0.022025026 0.032500278
-0.057816342 -0.022666216 0.032440569
-0.05373456 -0.023190791 0.032498766
0.0028143434 -0.022775097 0.034581717
0.0073225899 -0.022264071 0.032788176
0.013180103 -0.022681348 0.032359477
0.016022036 -0.02142599 0.03259559
-0.065454304 -0.016864358 0.032684401
-0.062542006 -0.01755663 0.032434139
-0.057749376 -0.017714635 0.032432687
-0.05486571 -0.019998729 0.034127679
0.0046229791 -0.018689506 0.034115676
0.0085217683 -0.01812754 0.032870643
0.013114723 -0.017617896 0.032349057
0.016657833 -0.017324651 0.032471702
-0.065977573 -0.012279496 0.032436498
-0.06301868 -0.012694547 0.032410011
-0.058682915 -0.012673546 0.032332707
0.0079977559 -0.012559877 0.034565505
0.012139415 -0.012780169 0.032434545
0.017362921 -0.012633801 0.032420419
0.020166574 -0.010995328 0.033662431
-0.066206247 -0.0073836111 0.032422945
-0.063079976 -0.0076229996 0.032335367
-0.059287582 -0.0076544066 0.032683741
0.0088031637 -0.0079642767 0.034727588
0.012862667 -0.0075774626 0.032598712
0.018104522 -0.0075932522 0.032375526
0.020420518 -0.0070269029 0.032386605
-0.066236138 -0.0025674484 0.032475986
-0.062893569 -0.0024941843 0.032376848
-0.059492484 -0.0026338862 0.032757509
0.0096896142 -0.0023501655 0.034627929
0.01324871 -0.0022866144 0.032884907
0.018441835 -0.0025421639 0.032417711
0.020387651 -0.0028547526 0.032441109
-0.066111192 0.0024001554 0.032484807
-0.062871337 0.0026004273 0.032390878
-0.059515264 0.0023416507 0.032402351
0.0097371787 0.00097318622 0.034523975
0.012967101 0.0023171157 0.033061322
0.018381273 0.0026154967 0.032498002
0.020260256 0.0023736879 0.031755719
-0.065740511 0.0071869269 0.032495238
-0.063123249 0.0077009508 0.032360516
-0.05902794 0.0079326127 0.0325257
0.012342175 0.007759355 0.032257773
0.017702023 0.0076168426 0.032548264
0.02007355 0.0061296015 0.030248171
-0.06542249 0.011104729 0.032341018
-0.062469479 0.012586615 0.03240902
-0.057800341 0.012490843 0.032440558
0.0095010027 0.013680437 0.032732628
0.012572688 0.012599063 0.03237211
0.016736615 0.012569252 0.032352649
-0.061322678 0.017012229 0.03240335
-0.057764105 0.017780017 0.032471009
-0.054137994 0.018868852 0.032204792
0.0029919571 0.019167239 0.0339946
0.0076710354 0.017750509 0.032536473
0.013469695 0.017809428 0.03234433
0.016195754 0.016938059 0.032432519
-0.06051261 0.021277845 0.032583032
-0.057529882 0.022520751 0.032404896
-0.05252365 0.022645755 0.032528453
-0.049294695 0.024198873 0.032182649
-0.0018205843 0.023471389 0.033918966
0.002997322 0.022863435 0.032749437
0.0080383066 0.022945676 0.03252149
0.012015281 0.022074962 0.032516312
0.015319946 0.020024031 0.031293541
-0.056366052 0.026225876 0.032354802
-0.052708421 0.027518412 0.032419197
-0.047780119 0.027611399 0.032532442
-0.043154616 0.028791249 0.032661963
-0.038298063 0.028386198 0.034654606
-0.010598399 0.029751955 0.033927821
-0.0070390166 0.02829376 0.033769112
-0.0022261704 0.027820101 0.032701075
0.0029199962 0.027999094 0.032480557
0.0071950573 0.027187364 0.032439779
0.010821919 0.026081713 0.032404833
-0.051144663 0.030967401 0.032290295
-0.047477681 0.032275498 0.032430213
-0.042815667 0.032918908 0.032545637
-0.037535265 0.032404277 0.032482851
-0.032516286 0.03355141 0.032541502
-0.02763227 0.034119435 0.032670747
-0.022491848 0.034168359 0.033039544
-0.0174635 0.033639565 0.032982461
-0.012582899 0.032962594 0.032958195
-0.0073928721 0.032510992 0.032389943
-0.0022807615 0.033248156 0.032440752
0.0021403721 0.031927016 0.032404836
0.0057019647 0.03061649 0.032487407
-0.045829255 0.035255097 0.032582898
-0.042125762 0.03629864 0.032420017
-0.037461143 0.03740453 0.032449599
-0.03257408 0.038394276 0.032385528
-0.027458437 0.038427416 0.032563128
-0.022359867 0.038436953 0.032486383
-0.017453332 0.038367834 0.032471389
-0.012402995 0.038141314 0.032458033
-0.0076766112 0.037145913 0.032420214
-0.0031527549 0.03613992 0.032371338
0.00064879947 0.035232935 0.031994637
-0.035936009 0.040254988 0.032771967
-0.032283772 0.040607326 0.03237484
-0.027332973 0.041057166 0.032332633
-0.022427591 0.041076683 0.032511961
-0.017547933 0.041002143 0.032363601
-0.013321609 0.04063651 0.032242972
-0.0098640043 0.040194444 0.03072582
-0.048663028 -0.070068613 0.035117272
-0.056170207 -0.065793984 0.037534982
-0.052350946 -0.066878825 0.037545148
-0.04773115 -0.0681035 0.03756316
-0.044220019 -0.06756863 0.037681691
-0.057021782 -0.062992305 0.037490468
-0.054277975 -0.064481109 0.037336282
-0.036671627 -0.045329243 0.03713356
-0.032029904 -0.045279566 0.037348356
-0.027311839 -0.045501079 0.037490964
-0.022465056 -0.045679811 0.037507158
-0.017274288 -0.04557357 0.037391458
-0.013180325 -0.045456883 0.037532762
-0.046241544 -0.040852714 0.037745103
-0.042277005 -0.041830812 0.037398901
-0.037470609 -0.0426252 0.037430894
-0.032551397 -0.043057561 0.037519205
-0.027376384 -0.043247212 0.037523009
-0.022330852 -0.043218516 0.037534747
-0.017417945 -0.043338705 0.037498463
-0.012522943 -0.042851306 0.037514541
-0.00769212 -0.041934438 0.03750816
-0.0032160222 -0.040843382 0.037487276
0.00038786934 -0.040318228 0.037675191
-0.051244304 -0.036292277 0.037393555
-0.047595039 -0.037456818 0.037401609
-0.042808939 -0.038332447 0.037515707
-0.037410472 -0.036706511 0.03751367
-0.03238285 -0.037814807 0.037672933
-0.027413951 -0.037831236 0.037874095
-0.022395547 -0.037852898 0.037816323
-0.017582074 -0.037552148 0.037616394
-0.012670479 -0.037113372 0.03778654
-0.0076015317 -0.037503362 0.037474845
-0.0022546663 -0.038208917 0.037472818
0.002098168 -0.036783025 0.037545361
0.005554657 -0.0355541 0.037689213
-0.056083236 -0.031227922 0.0374755
-0.052570593 -0.032449726 0.037507568
-0.047705695 -0.032380048 0.037350129
-0.042579614 -0.032711949 0.037820213
-0.037705455 -0.032887112 0.038174778
-0.032982599 -0.03414892 0.037728921
-0.029410699 -0.034716632 0.037240706
-0.020415191 -0.034830019 0.03584104
-0.016970644 -0.034652319 0.035949804
-0.012043172 -0.034146633 0.037296373
-0.0072431094 -0.032777797 0.03756763
-0.002602383 -0.032366697 0.037731171
0.0028210636 -0.033038389 0.037495647
0.0071702376 -0.032002449 0.037460014
0.01042197 -0.030449521 0.038044401
-0.060733143 -0.025650242 0.037262179
-0.057361715 -0.027239632 0.037475307
-0.052738875 -0.027580027 0.03733813
-0.04779024 -0.027740605 0.038120128
-0.04339207 -0.028919009 0.038146526
-0.0054284809 -0.029834885 0.035635903
-0.001859977 -0.028292008 0.037271246
0.0025758871 -0.027465794 0.037747215
0.0080593172 -0.02785079 0.037558164
0.011736591 -0.026855826 0.037441131
0.015206451 -0.025001828 0.039380874
-0.061509486 -0.022098616 0.037452124
-0.057984021 -0.022781953 0.037403256
-0.052716658 -0.022599118 0.038014796
-0.048729524 -0.023466056 0.038098816
0.0032985813 -0.022944679 0.037618127
0.0073641855 -0.022358766 0.037657727
0.013040444 -0.022624277 0.037495967
0.015778398 -0.021818113 0.037424926
-0.065505199 -0.016583553 0.036940735
-0.062495846 -0.017501598 0.037498049
-0.057112947 -0.017715177 0.037890911
-0.053014737 -0.017833732 0.038355082
0.0047694142 -0.019256599 0.035925824
0.0078088245 -0.01777415 0.037631497
0.01288802 -0.017688373 0.037511442
0.016635921 -0.017260063 0.037454817
-0.065951556 -0.012222192 0.037529938
-0.063342497 -0.012736716 0.037484117
-0.057681214 -0.012346121 0.038070988
-0.054202314 -0.013013541 0.038230114
0.0088722957 -0.012696302 0.037346274
0.011493483 -0.012448863 0.037635084
0.017543482 -0.012605071 0.03741001
0.020227645 -0.010944029 0.038253617
-0.066216044 -0.0073805931 0.037423387
-0.063502885 -0.0076796105 0.037505139
-0.057814136 -0.0075111315 0.038127217
-0.054791477 -0.0078911316 0.037609749
0.0094731841 -0.0078016962 0.036647025
0.012010153 -0.0074633756 0.037771478
0.018367387 -0.0076231766 0.037412636
0.020435411 -0.0073930351 0.037609413
-0.066369466 -0.0025835831 0.037520394
-0.063207984 -0.002502688 0.037499674
-0.057898007 -0.0024817646 0.038164772
-0.054878581 -0.0041607046 0.037613291
0.0097954953 -0.0029908554 0.036059204
0.012088249 -0.0025876844 0.037748944
0.018736888 -0.002509658 0.037415233
0.020529091 -0.0024049955 0.037561215
-0.066084437 0.0023791483 0.037495978
-0.063089997 0.0026213746 0.037510958
-0.057771403 0.0025441344 0.03812173
-0.054836571 0.0025233119 0.037116148
0.0098045627 0.0026493745 0.036502387
0.012006491 0.0025561866 0.03762703
0.018529903 0.0026054834 0.037454154
0.020300368 0.0021965352 0.037811942
-0.065838218 0.0071464363 0.037506323
-0.063418455 0.0077413041 0.037476912
-0.057796769 0.0075482056 0.037975099
-0.054478355 0.0080168396 0.037798878
0.0094552217 0.0078961151 0.037986621
0.011769951 0.0073464103 0.037831418
0.017752206 0.0076337163 0.037434857
0.020170385 0.0051724445 0.039457276
-0.065331444 0.010970498 0.037478838
-0.062449221 0.012647066 0.037472595
-0.057335224 0.012573658 0.037660845
-0.053481143 0.012805238 0.038388893
0.0083381571 0.013028594 0.037730064
0.012067498 0.012481389 0.037588045
0.016707817 0.012560791 0.037569977
-0.061337058 0.017014503 0.037499025
-0.058090858 0.017815294 0.037440304
-0.052711163 0.017746376 0.037956949
-0.049365174 0.018984731 0.037730545
0.0037637381 0.018543938 0.036960207
0.0072443327 0.017382355 0.037645496
0.013548863 0.017836306 0.03749172
0.016243175 0.016634174 0.037666455
-0.060440477 0.021197533 0.037304711
-0.057538759 0.022454064 0.037441578
-0.052409243 0.022830285 0.037524622
-0.047832005 0.022833405 0.038095538
-0.044583742 0.024400109 0.037428573
-0.0010153041 0.023998696 0.036830839
0.0026696292 0.022612048 0.037577838
0.0078599397 0.022729598 0.037465692
0.012005755 0.022035245 0.037556186
-0.056233581 0.026193874 0.037276324
-0.052669894 0.027485775 0.037464466
-0.047596939 0.027550614 0.037503541
-0.042876054 0.02785111 0.037775148
-0.038408842 0.029062225 0.037647907
-0.010274033 0.029843997 0.035772402
-0.006804436 0.029060937 0.037147675
-0.0025205633 0.027534045 0.037594069
0.0026097968 0.027816972 0.037532873
0.0073852125 0.027221363 0.037523523
0.010697359 0.0257941 0.037356324
-0.050906088 0.030996487 0.03731858
-0.047494803 0.032234587 0.037417345
-0.042711515 0.032763273 0.037570208
-0.037308093 0.032257505 0.037690204
-0.03249345 0.033147074 0.037711926
-0.027501114 0.033760071 0.037581623
-0.02240348 0.033702265 0.037406217
-0.017502906 0.033474322 0.037363555
-0.012497268 0.032525901 0.037491888
-0.0076747625 0.031779394 0.037707955
-0.00212216 0.033294689 0.037485667
0.0021653727 0.031866767 0.037541036
0.0055225771 0.030615311 0.037414834
-0.045825593 0.035414405 0.037226662
-0.042074483 0.036266938 0.037482165
-0.037489183 0.037384592 0.03744613
-0.032429673 0.03818728 0.03758283
-0.027442835 0.037937745 0.037651997
-0.022439981 0.037835922 0.037683774
-0.017536229 0.038125347 0.037562121
-0.012589485 0.038089428 0.037435994
-0.0076870769 0.037214674 0.037471399
-0.0032188576 0.036024746 0.037406284
0.00048127104 0.035098113 0.037610117
-0.035838548 0.040283497 0.03778879
-0.031708915 0.040681466 0.037604243
-0.027367758 0.041014768 0.037526183
-0.022535946 0.041057508 0.037521407
-0.017787732 0.040990923 0.037431497
-0.013115497 0.040542386 0.037565388
-0.0094416663 0.040206887 0.037785184
-0.050327592 -0.070086978 0.043394357
-0.049489349 -0.070121177 0.043232232
-0.056391872 -0.065958448 0.042512737
-0.052513245 -0.067204192 0.042549282
-0.04770039 -0.068196461 0.042534798
-0.044533636 -0.067613065 0.042206384
-0.057562135 -0.063272692 0.042479087
-0.054473504 -0.064636327 0.04242504
-0.037983075 -0.045218043 0.042177692
-0.031373739 -0.045204177 0.042262174
-0.027408227 -0.045430113 0.042529501
-0.022586446 -0.045604408 0.042416681
-0.017432658 -0.045673557 0.042710125
-0.013668088 -0.045560353 0.042381056
-0.04614763 -0.040735852 0.042499211
-0.042175356 -0.041742887 0.042509176
-0.037400745 -0.042519186 0.042479269
-0.032498527 -0.042907592 0.042541176
-0.027384663 -0.043041997 0.04265444
-0.022354065 -0.042936005 0.042582747
-0.017512115 -0.04316188 0.042606242
-0.012541465 -0.042884748 0.042569794
-0.0077967392 -0.042036183 0.042546481
-0.003365187 -0.04090406 0.042555247
0.00060925871 -0.0402526 0.041280683
-0.051143356 -0.036175452 0.042508483
-0.047630459 -0.037513278 0.042502642
-0.04301608 -0.037860256 0.042635959
-0.037268009 -0.036711778 0.042586137
-0.032437198 -0.037309699 0.04257948
-0.027487826 -0.03793693 0.04250484
-0.022606673 -0.038206082 0.042490818
-0.01750318 -0.037966136 0.042509709
-0.012660521 -0.037132032 0.042546228
-0.0075093694 -0.037131324 0.042698886
-0.0022282994 -0.037988659 0.042487048
0.0020866953 -0.036885548 0.042512845
0.0055933776 -0.035545409 0.04228228
-0.056169234 -0.031136464 0.04231314
-0.052523777 -0.032354027 0.042512301
-0.047592018 -0.032357071 0.042556312
-0.042561267 -0.03257088 0.04256412
-0.037917424 -0.033651248 0.042369433
-0.033355542 -0.034487505 0.041500609
-0.011183918 -0.034612171 0.04151855
-0.0070201196 -0.033774827 0.042323083
-0.0026344408 -0.032286521 0.04257416
0.0027536347 -0.03291928 0.042537481
0.0072009647 -0.032058153 0.042618964
0.0105768 -0.030817125 0.042223174
-0.060760632 -0.02571073 0.042592421
-0.057400532 -0.02722952 0.042554863
-0.052692138 -0.027418658 0.04265913
-0.047780249 -0.027755007 0.042461608
-0.043962549 -0.029299146 0.041677278
-0.0010017932 -0.029058143 0.04181423
0.0025735358 -0.027615929 0.042454701
0.0079514161 -0.027704557 0.042512085
0.011808023 -0.026913306 0.042542111
0.01504745 -0.025087535 0.040060166
-0.06133081 -0.02215424 0.042484038
-0.057977051 -0.0227885 0.042585406
-0.052623373 -0.022661813 0.042515468
-0.049302522 -0.024241686 0.041920468
0.0041294587 -0.023727318 0.042128291
0.0073344707 -0.022399364 0.042522866
0.013057888 -0.022584515 0.04257445
0.015780926 -0.021637097 0.042485371
-0.065447286 -0.016280117 0.042303998
-0.062445264 -0.017607842 0.042510718
-0.056918211 -0.017528009 0.042646889
-0.053893536 -0.017963903 0.042157702
0.008505635 -0.017860226 0.04238534
0.012220915 -0.017657971 0.042614836
0.016598511 -0.017372387 0.04250513
-0.065874465 -0.012073427 0.042381153
-0.063244164 -0.012670724 0.04256019
-0.057469238 -0.012646191 0.042646509
-0.054598913 -0.013723926 0.040903106
0.009535729 -0.01361561 0.041969862
0.011586935 -0.012419065 0.042761311
0.017705142 -0.012582958 0.042450529
0.020108541 -0.011024815 0.04424293
-0.066232324 -0.0073902588 0.042466503
-0.063040957 -0.0075463806 0.042643007
-0.058002159 -0.0076137795 0.042399168
0.0098910145 -0.0099252462 0.040292293
0.012324755 -0.0075542242 0.042514678
0.018578917 -0.0076504839 0.042599078
0.02041146 -0.0073421258 0.042706311
-0.066434287 -0.0024367843 0.042453706
-0.06275034 -0.0025400405 0.042645913
-0.05827054 -0.0025236281 0.042390257
0.012692552 -0.002561576 0.042456232
0.018779121 -0.0025709006 0.042546015
0.020529522 -0.0027214428 0.042690303
-0.066180073 0.0024785327 0.0424858
-0.062826835 0.0025777451 0.042587403
-0.058217488 0.0025219878 0.042441852
0.012425367 0.0025757451 0.042431824
0.018473277 0.0025504748 0.042628758
0.020273933 0.0020295228 0.04247953
-0.065884411 0.0069822688 0.042431295
-0.063297369 0.0077458532 0.042532444
-0.057750531 0.007545366 0.042427685
-0.054892033 0.0090677002 0.040589016
0.0096723065 0.0090319943 0.041146547
0.011721195 0.007436831 0.042557992
0.017764218 0.0076768631 0.042575289
0.020186165 0.0066979062 0.044368934
-0.065340623 0.010712541 0.042723663
-0.062466577 0.012637656 0.042528652
-0.056778163 0.012299226 0.042677358
-0.054261025 0.01334573 0.042094365
0.0089665335 0.013103819 0.042414412
0.011968187 0.012517013 0.042658478
0.016766887 0.01242956 0.042518929
-0.061232317 0.017058827 0.042547949
-0.058002759 0.017798798 0.042576656
-0.052999008 0.017797416 0.042370986
-0.049747542 0.019762123 0.041369751
0.0045911479 0.019486597 0.041959923
0.0074575702 0.017566664 0.042522218
0.013381857 0.017832801 0.042549066
0.016340703 0.01664125 0.042591877
-0.060411394 0.020683667 0.042423978
-0.057468358 0.022393133 0.042557161
-0.052335836 0.022410136 0.042504337
-0.048224993 0.023146611 0.042473834
-0.044609759 0.024701115 0.041394435
-0.00030881417 0.024397982 0.040465992
0.0030951244 0.022940636 0.042500421
0.0077930512 0.022605002 0.042637162
0.011925273 0.022055462 0.042549323
-0.056115367 0.026098793 0.042564265
-0.052662034 0.027402412 0.042566102
-0.047430243 0.027342264 0.042613272
-0.042924523 0.028121971 0.042471096
-0.038998272 0.029372271 0.041865777
-0.0059568794 0.029465437 0.042231835
-0.0022459917 0.027787702 0.0424935
0.0024922385 0.027542021 0.042509533
0.0074331542 0.027297677 0.042540081
0.010617968 0.025983138 0.042599101
-0.050998919 0.030752141 0.042490937
-0.047487639 0.03228388 0.042503495
-0.042605557 0.032606117 0.042547829
-0.03750148 0.032323364 0.042522565
-0.032656476 0.033367526 0.042495951
-0.027608464 0.03398649 0.042422909
-0.022522893 0.03417642 0.042329628
-0.01735796 0.033941116 0.042382449
-0.012481255 0.033079453 0.042529393
-0.0075367796 0.031944148 0.042734437
-0.0023158852 0.033096157 0.042586755
0.0022370408 0.032050449 0.04252908
0.0060174055 0.030632211 0.042468846
-0.046011798 0.035542332 0.042671043
-0.042080563 0.036291443 0.042513195
-0.037425809 0.037325762 0.042568862
-0.032440811 0.037858948 0.042605706
-0.027392954 0.037639722 0.042542819
-0.02252592 0.037648771 0.04254384
-0.017613571 0.037986334 0.042547461
-0.012428003 0.038168877 0.042522915
-0.0076268669 0.037206154 0.042563174
-0.0030615234 0.036056299 0.042635642
0.00055120751 0.03546321 0.04167825
-0.036078516 0.040087674 0.041613977
-0.032065731 0.040784016 0.042531967
-0.027214743 0.040996127 0.042450853
-0.022587916 0.041053254 0.042407475
-0.017726421 0.040897496 0.042498209
-0.012918298 0.040749528 0.042537279
-0.0092702294 0.040292609 0.042643562
-0.050231867 -0.07030376 0.048966631
-0.049484231 -0.070224516 0.04878445
-0.056392465 -0.06588757 0.047357596
-0.052458029 -0.067150079 0.047723841
-0.047655489 -0.067793772 0.047577851
-0.044535246 -0.06680011 0.047836009
-0.057631504 -0.063156538 0.047700331
-0.05420547 -0.064376809 0.048153251
-0.058650777 -0.059982441 0.04972475
-0.038647715 -0.045320656 0.047467545
-0.031177731 -0.045264926 0.047399726
-0.027314756 -0.04549912 0.047360834
-0.022555295 -0.04558656 0.047509782
-0.017350104 -0.04568357 0.047544882
-0.013459549 -0.045468319 0.047777873
-0.046257243 -0.040761076 0.047554512
-0.042201776 -0.041796084 0.047517788
-0.037538268 -0.042480011 0.047460783
-0.03241409 -0.04281782 0.04755345
-0.027421035 -0.042896274 0.047583751
-0.022447519 -0.042838484 0.047665685
-0.01751969 -0.042940993 0.047629662
-0.012516047 -0.042802472 0.047582164
-0.0077920831 -0.041997239 0.047597602
-0.0033016119 -0.04121178 0.047689557
0.00050632615 -0.040273812 0.047515839
-0.051061451 -0.036405727 0.047423422
-0.047599666 -0.037478421 0.047559131
-0.042461436 -0.037269097 0.047625307
-0.037369583 -0.036863018 0.047574453
-0.032493453 -0.037646923 0.047562875
-0.027536761 -0.038478013 0.047484342
-0.022390414 -0.03868667 0.047430526
-0.017478794 -0.038400337 0.047411978
-0.012473122 -0.037603576 0.047600269
-0.0075025824 -0.037225638 0.0476017
-0.0023438889 -0.037912369 0.047557279
0.0021174296 -0.03694107 0.047560561
0.0055353288 -0.035616945 0.047395606
-0.056222558 -0.031160852 0.047441635
-0.052502852 -0.032285977 0.047639795
-0.047618117 -0.03226475 0.047628067
-0.042779166 -0.032767124 0.047534436
-0.038529381 -0.034143791 0.047347084
-0.0066808984 -0.034100078 0.047259059
-0.0023677633 -0.032576747 0.047568426
0.002638072 -0.032776382 0.047640562
0.0072158612 -0.032030471 0.04754968
0.010651888 -0.030630877 0.047224104
-0.060389921 -0.026331559 0.047521226
-0.057325993 -0.027289169 0.047608092
-0.052455246 -0.027344983 0.047695156
-0.048121676 -0.028138021 0.047463793
-0.044639885 -0.029450426 0.04627097
-0.00041247613 -0.029374339 0.047349088
0.0029008552 -0.027779019 0.0476011
0.0078101498 -0.027530653 0.047607902
0.011885443 -0.026890974 0.04754173
-0.061416846 -0.022106489 0.047590099
-0.057853777 -0.022606945 0.047663074
-0.053088102 -0.022693859 0.047574542
-0.049711496 -0.024702752 0.047099251
0.0045618564 -0.02425983 0.047062334
0.0075732549 -0.022541178 0.047459044
0.012959033 -0.022615405 0.047646001
0.015765658 -0.021897282 0.047770873
-0.0653999 -0.016032938 0.046963833
-0.062292829 -0.017461069 0.047533236
-0.057255659 -0.01748972 0.047740832
-0.054278195 -0.018695898 0.047240529
0.0089861257 -0.018121682 0.047517113
0.012199445 -0.017588982 0.047575131
0.016591415 -0.017255284 0.047522008
-0.06589248 -0.012173298 0.047543012
-0.062898725 -0.012646166 0.047646713
-0.058034353 -0.012611062 0.047390345
0.0097879926 -0.014429707 0.047321256
0.01209681 -0.012561812 0.047620844
0.01769064 -0.01251074 0.047556944
0.020263772 -0.010491491 0.046899389
-0.066082448 -0.0074400408 0.047553208
-0.062712401 -0.0075732893 0.047719974
-0.0587296 -0.0076837186 0.047451112
