# .PCD v0.7 - Point Cloud Data file format
VERSION 0.7
FIELDS x y z
SIZE 4 4 4
TYPE F F F
COUNT 1 1 1
WIDTH 1295
HEIGHT 1
VIEWPOINT 0 0 0 1 0 0 0
POINTS 1295
DATA ascii
-0.044817787 0.0043930449 0.013176179
0.033384588 0.0012752328 0.012727517
0.037511237 0.0025564998 0.012857409
0.041448496 0.0028940411 0.013300138
-0.046659879 0.0068983436 0.012771041
-0.043707285 0.0081703067 0.012755298
0.038662709 0.0064890082 0.012480631
0.042071898 0.0078946007 0.013057889
0.045567062 0.0079055391 0.014087522
-0.04599658 0.011256121 0.013767901
-0.042111322 0.012323941 0.012685234
-0.038374506 0.013723399 0.012858701
-0.034383662 0.014898865 0.014609461
0.043740857 0.011889072 0.012820666
0.046608254 0.013065954 0.01295227
-0.040997889 0.015895255 0.012565796
-0.037094455 0.017210666 0.012674988
-0.033095252 0.018300356 0.012730494
-0.029474929 0.019244568 0.012354624
0.044796277 0.0153226 0.014984622
0.047628112 0.017358784 0.012883159
0.050539505 0.018592872 0.013332247
-0.035653993 0.020404788 0.013199164
-0.031879459 0.02151981 0.012600386
-0.027826043 0.022945272 0.012572093
-0.024300981 0.024256589 0.012762556
0.048418265 0.022615353 0.012705899
0.050911106 0.020884955 0.014458845
-0.026441848 0.026202695 0.012374145
-0.022625051 0.027673425 0.012632628
-0.018953297 0.028841091 0.013356538
0.048059389 0.027575795 0.012683336
0.050476521 0.025394969 0.01302301
-0.020899434 0.030740874 0.012520662
-0.017588746 0.032312337 0.012522773
-0.013851454 0.034103595 0.012882119
0.044493098 0.034103908 0.012757519
0.046700019 0.032359853 0.012767008
-0.015512889 0.035651777 0.011990619
-0.01225164 0.036810268 0.012577903
-0.0086632837 0.038781807 0.012964189
-0.0045819175 0.03966419 0.014742645
0.039476342 0.039960403 0.013882986
0.043001112 0.037821718 0.012684387
0.045775339 0.036144782 0.012865989
-0.0067918925 0.041703612 0.012740158
-0.0032945459 0.043386955 0.012833102
0.034900919 0.044894096 0.012086765
0.038335852 0.043141421 0.012580858
0.041347388 0.041770145 0.012685243
-0.0016790978 0.046587776 0.012694039
0.0021288565 0.04818942 0.012679069
0.0056460178 0.049791761 0.012795282
0.029482484 0.049677867 0.012702674
0.033102088 0.048441052 0.012551398
0.03692133 0.046891067 0.012658539
-0.00028856818 0.050289284 0.013097646
0.0037600396 0.051027749 0.012752838
0.0076044262 0.052209437 0.012653854
0.012315674 0.053680811 0.012684397
0.017405583 0.054082148 0.012690092
0.022674523 0.05386883 0.012529516
0.027559048 0.052746069 0.012603404
0.031868067 0.051764939 0.012631348
0.035537321 0.050628316 0.012806261
0.0091930749 0.055323929 0.013174918
0.013313011 0.056070618 0.01297827
0.017464561 0.056356542 0.012529899
0.02230054 0.056430802 0.012582382
0.026855847 0.055703033 0.013009685
-0.02639221 -0.035337415 0.01677314
-0.022313502 -0.035739295 0.017332628
-0.017961606 -0.035781972 0.01755893
-0.013017474 -0.035364423 0.017970219
-0.03511906 -0.030073131 0.015426885
-0.031657048 -0.03106657 0.01762009
-0.027314592 -0.032213327 0.017526029
-0.022641705 -0.033025689 0.017690392
-0.017544452 -0.033184379 0.017610418
-0.012448535 -0.032682322 0.017542023
-0.0081469342 -0.031507067 0.017452374
-0.00387643 -0.030529227 0.017084887
-0.03630662 -0.026595874 0.017219044
-0.032700013 -0.027654052 0.017565833
-0.028627448 -0.029138304 0.017830385
-0.010284585 -0.029471302 0.018552914
-0.006800855 -0.02877816 0.01759154
-0.0024603959 -0.027349567 0.017485166
0.0013939843 -0.026342781 0.017226595
0.007010024 -0.025609821 0.015315616
-0.040875606 -0.021593319 0.017103907
-0.037603635 -0.022638697 0.017530886
-0.034213085 -0.024015166 0.018005535
-0.00095489854 -0.024222685 0.018090757
0.0028372856 -0.022770585 0.017698321
0.0070785279 -0.021844216 0.017253419
0.011639526 -0.021365814 0.017004512
-0.045586705 -0.016002648 0.017675286
-0.042110313 -0.017215371 0.017463818
-0.039053418 -0.018887203 0.017668935
0.0042642662 -0.019301431 0.018183105
0.0080841044 -0.018098801 0.017648837
0.012187673 -0.01692828 0.017646618
0.016276559 -0.01614783 0.01802082
0.020090152 -0.015112589 0.01650463
-0.046392079 -0.012173468 0.01747549
-0.043578483 -0.012911657 0.017738791
0.0098215155 -0.014733526 0.018344693
0.013226086 -0.013445982 0.017759118
0.017362872 -0.012381378 0.017482143
0.021769978 -0.011219383 0.017188566
0.02569817 -0.01049762 0.016193589
-0.050098415 -0.0061156787 0.018391972
-0.047152434 -0.0074743358 0.017598597
-0.044534221 -0.0085578067 0.017981734
0.018526508 -0.0087276204 0.017720129
0.022688761 -0.0078480346 0.017521659
0.027171988 -0.0069303559 0.017451957
0.03129676 -0.006071493 0.017460737
-0.050714862 -0.0019359473 0.017994033
-0.047702119 -0.0025891177 0.017578395
0.023731451 -0.0043819342 0.018088968
0.027792333 -0.0032323601 0.017526064
0.032299869 -0.0023320499 0.017591609
0.036733996 -0.0013083006 0.017649155
0.041071191 -0.00042829057 0.01852392
-0.050559055 0.0017601239 0.017347571
-0.047525086 0.0025769186 0.017535796
-0.044650827 0.0037673966 0.0178927
0.03323061 0.0013919077 0.017596133
0.037489198 0.0025851137 0.017531609
0.042054083 0.0029249433 0.017732879
0.045426663 0.0047443616 0.018562416
-0.046739481 0.0072472412 0.017438577
-0.043542076 0.0080568129 0.017623179
0.03864665 0.0063193007 0.01762888
0.042264283 0.0076297834 0.017634768
0.046251837 0.0074498286 0.017773954
-0.04592872 0.010802458 0.017321693
-0.042114228 0.012206763 0.017516818
-0.038372949 0.013523731 0.017636774
-0.034679081 0.014778632 0.017965356
0.043770645 0.01184508 0.017548472
0.046772741 0.012909373 0.017492125
0.050441455 0.013411004 0.019265939
-0.041104496 0.01601419 0.017712794
-0.037078634 0.017295457 0.017490761
-0.032887746 0.018143814 0.017612325
-0.02918523 0.019376017 0.017598912
0.047690134 0.017394301 0.017559929
0.050629366 0.018541358 0.017477887
-0.035705421 0.020664815 0.017710675
-0.031924218 0.021440867 0.017619329
-0.02764401 0.022753682 0.017527999
-0.023686435 0.024204871 0.017728506
0.048181549 0.0224967 0.017526794
0.050794952 0.021647269 0.017812213
-0.02627782 0.026164692 0.01770366
-0.022440393 0.027400291 0.017577849
-0.018486664 0.028648211 0.017666556
0.04798355 0.027489968 0.017609721
0.050354306 0.026784819 0.017556576
-0.021406367 0.030790767 0.017929468
-0.0173223 0.032038447 0.017722871
-0.013318567 0.033481725 0.017856371
-0.0096244132 0.034673881 0.01837749
0.044353448 0.033765201 0.017724419
0.046720598 0.032128278 0.017635217
-0.015842224 0.035586342 0.0173846
-0.011987448 0.036759436 0.017485552
-0.0082042757 0.038160663 0.017647857
-0.0043138224 0.039265133 0.017960947
0.039477732 0.039526206 0.018578727
0.04290266 0.03771212 0.017706586
0.045808177 0.036495015 0.017188199
-0.010934577 0.04054793 0.016470868
-0.0067361896 0.041652597 0.017475352
-0.0029518851 0.042970061 0.01762329
0.00043924086 0.044532385 0.018498177
0.034384437 0.0448125 0.018877883
0.03816133 0.043089133 0.01766984
0.041335683 0.041762732 0.017573854
-0.0015615384 0.046646573 0.01731254
0.0022904871 0.047918011 0.017663984
0.0063028843 0.049266025 0.018051732
0.02915808 0.049377482 0.01853109
0.032957748 0.048151232 0.01765402
0.036836494 0.046943832 0.017518589
0.040445413 0.04562946 0.016296538
0.0035654623 0.050937869 0.017446132
0.0077052815 0.051993307 0.017478701
0.012422299 0.05322893 0.017540213
0.017444115 0.05370912 0.017724702
0.022586359 0.053557094 0.017577246
0.027442845 0.052568544 0.017600104
0.031820193 0.051645391 0.017570099
0.035508957 0.050319977 0.017003808
0.01351886 0.056075521 0.017425982
0.017656708 0.056127779 0.017355366
0.022326954 0.056270927 0.017423235
0.02658527 0.055726502 0.017184319
-0.025691448 -0.035430968 0.021871779
-0.022174321 -0.035645023 0.022536393
-0.017740786 -0.035795707 0.022036323
-0.013567654 -0.03545405 0.021959776
-0.031095134 -0.031056408 0.022248596
-0.027258301 -0.031998519 0.022448642
-0.022651292 -0.03253255 0.022492241
-0.017594429 -0.03281346 0.022388225
-0.012567671 -0.032360636 0.022374749
-0.0082869558 -0.031378679 0.022363408
-0.0047993707 -0.030371517 0.022669936
-0.036175344 -0.026288217 0.02244328
-0.03244457 -0.027463138 0.022519615
-0.028211715 -0.028864218 0.022560721
-0.024499783 -0.029706875 0.023033759
-0.010573803 -0.029627478 0.022396987
-0.0068601416 -0.028582694 0.022372469
-0.0028964023 -0.026961524 0.022337914
0.0007930944 -0.025850659 0.021768143
-0.04061747 -0.021084636 0.022398382
-0.03737215 -0.022459976 0.022471385
-0.033936866 -0.023624094 0.022546502
-0.0011901626 -0.023932079 0.022543274
0.0024509751 -0.022335259 0.022484062
0.0064743855 -0.02081093 0.021893054
-0.045156248 -0.015397917 0.021047726
-0.042040616 -0.017074857 0.022471463
-0.038835466 -0.018485015 0.022627134
0.0039373222 -0.019022405 0.022617595
0.0078259986 -0.017907128 0.022538787
0.012053389 -0.016670678 0.022108342
0.016037315 -0.015863791 0.021241173
-0.046202525 -0.012208076 0.02245971
-0.04323554 -0.012923853 0.022417186
-0.039912082 -0.014690184 0.024897235
0.0093836933 -0.014556798 0.022974968
0.013115786 -0.013168355 0.022567419
0.01731555 -0.012143711 0.022399232
0.021345388 -0.010921558 0.02211014
-0.050089497 -0.0052213012 0.023805348
-0.047004208 -0.007450643 0.022417471
-0.044328913 -0.0082263788 0.022556936
0.014742873 -0.0098716868 0.02188126
0.018215807 -0.0086376946 0.022540443
0.022593917 -0.0077153682 0.022453941
0.027158877 -0.0065968451 0.022409296
0.030881574 -0.005591521 0.021958483
-0.050379883 -0.0021823875 0.02194801
-0.04752687 -0.0025010218 0.022482954
-0.044769667 -0.0037701079 0.022890121
0.02346123 -0.0042411056 0.022436336
0.027939504 -0.0030108243 0.022509528
0.032256413 -0.0023293057 0.022426011
0.036680449 -0.00093127176 0.022327693
0.040324267 -0.00014535587 0.021688759
-0.050328746 0.0013566817 0.020987328
-0.047305338 0.0024351517 0.022436114
-0.044516422 0.0034047386 0.022692639
0.029464746 0.00039962368 0.023346759
0.033104956 0.0015325887 0.022594018
0.037429556 0.0025884567 0.022440135
0.041943997 0.0032038516 0.022252461
0.045458328 0.004611773 0.021684686
-0.046593532 0.0072279116 0.022475328
-0.043364447 0.0079632197 0.022475176
0.038471047 0.006346046 0.022623371
0.042346828 0.0076619084 0.022457926
0.046391267 0.0077732927 0.022467718
-0.045755677 0.010904824 0.022026401
-0.042104013 0.012210617 0.022426436
-0.038127761 0.013495664 0.022522841
-0.033996269 0.01485377 0.020132722
0.043676585 0.011762084 0.022470325
0.046682943 0.013013636 0.022477927
-0.041219413 0.015519742 0.021901658
-0.036936145 0.01695605 0.022272365
-0.032899629 0.017977748 0.02252621
-0.028938873 0.019427806 0.022502547
0.0445708 0.015405609 0.022426054
0.047677472 0.017459938 0.022455426
0.05053677 0.018856049 0.022092262
-0.035606794 0.020764669 0.022501279
-0.031924848 0.021417746 0.022291441
-0.027598327 0.022627456 0.022488508
-0.023750635 0.023867548 0.022704938
0.048192766 0.022501854 0.02244962
0.05065015 0.022260508 0.022359041
-0.026118718 0.025864117 0.022023067
-0.022292286 0.027258458 0.022379441
-0.018231561 0.028500546 0.022534529
-0.01475138 0.029633205 0.02341393
0.047890123 0.027497029 0.022473589
0.050334308 0.025994757 0.022640107
-0.020710954 0.030809527 0.021931462
-0.01712513 0.031804696 0.022418816
-0.013088432 0.03308969 0.022546319
-0.0094307605 0.034513064 0.022192217
0.04423802 0.033622161 0.022391202
0.04664303 0.032166384 0.022421416
-0.015414444 0.035305779 0.022144709
-0.012024299 0.036359347 0.022434074
-0.0079915915 0.037948802 0.02245884
-0.0039478699 0.039127849 0.022486649
0.039354712 0.039363563 0.022729663
0.042638794 0.037523434 0.022475408
0.045779511 0.03606062 0.022062596
-0.0064269993 0.041170873 0.022315858
-0.0026435535 0.042719565 0.02242825
0.0010280785 0.044125669 0.02277695
0.034305461 0.044468176 0.022581516
0.0379025 0.042958602 0.022420231
0.041166604 0.041678954 0.022380231
-0.0012797061 0.046271451 0.022137921
0.0026151184 0.047449239 0.022458252
0.0068359328 0.048837814 0.02267489
0.010427626 0.049941875 0.02204279
0.02885925 0.049291909 0.022534356
0.032779332 0.048033245 0.02240002
0.036763899 0.04679976 0.022467965
0.0041044783 0.050695289 0.022004521
0.0077991472 0.051841911 0.0224791
0.012329062 0.052920118 0.022487201
0.017432777 0.053461805 0.022427773
0.022553205 0.053258948 0.022460762
0.027356036 0.052386694 0.02247341
0.031701434 0.051743463 0.022487823
0.035144307 0.050077416 0.022680439
0.013285195 0.055585802 0.022276605
0.017636966 0.056060832 0.02248982
0.022097526 0.056118123 0.022405079
0.026463538 0.055616871 0.022215774
-0.025747966 -0.035194486 0.026637178
-0.021894675 -0.035457294 0.027379576
-0.018448081 -0.035429992 0.026962154
-0.013969823 -0.035251062 0.026150288
-0.031317011 -0.030892413 0.027217388
-0.027151849 -0.031856101 0.027384624
-0.022593962 -0.032463882 0.027390964
-0.017539481 -0.032614786 0.027466938
-0.012586437 -0.032193027 0.027381057
-0.008250976 -0.031308264 0.027494095
-0.0047924402 -0.030088779 0.027332172
-0.036055755 -0.02630871 0.027350094
-0.032398935 -0.027323332 0.027421182
-0.028110549 -0.028768223 0.027397271
-0.024293631 -0.029707747 0.027294777
-0.010947854 -0.029686874 0.02727505
-0.0069366293 -0.028544884 0.027416663
-0.0030171848 -0.026870683 0.027455499
0.00088243658 -0.025795734 0.027724287
-0.040742412 -0.02093002 0.027814316
-0.037313741 -0.022332331 0.027459374
-0.033752926 -0.023638504 0.027572116
-0.0011933177 -0.023847137 0.027512306
0.0023101484 -0.022231067 0.02742823
0.0059205163 -0.020798177 0.027277622
-0.045204241 -0.015783954 0.027057033
-0.041845988 -0.01710744 0.02742501
-0.038612522 -0.018285889 0.027481358
0.0038102798 -0.018906908 0.027614798
0.0076472191 -0.017705631 0.027352139
0.011606355 -0.016243327 0.027324596
0.015409293 -0.01531322 0.026741086
-0.046016276 -0.012029069 0.027515549
-0.043095559 -0.012840283 0.027383851
-0.039895244 -0.014608884 0.025713097
0.0090828566 -0.014574535 0.027592383
0.013124391 -0.013225029 0.027478768
0.017130736 -0.011885638 0.027399104
0.021044478 -0.01068499 0.02716
-0.046791513 -0.0073960377 0.027393993
-0.044161092 -0.0082087275 0.027250066
0.014813716 -0.0096383281 0.028069098
0.018200174 -0.0086033894 0.027422717
0.022391519 -0.0075919707 0.027349148
0.026893944 -0.0064254333 0.027414983
0.030693814 -0.0054699327 0.027332703
-0.047187522 -0.0025484911 0.02735322
-0.044854455 -0.0027266676 0.026837822
0.023777287 -0.0042987647 0.02737309
0.027752064 -0.0029798639 0.027425375
0.032272253 -0.0022057709 0.027412051
0.036567122 -0.00098498538 0.027625419
-0.047051247 0.0023891069 0.027422978
-0.044510506 0.0034028022 0.027250914
0.029351264 0.00040798917 0.027845379
0.032994207 0.0017362472 0.02753642
0.03737314 0.0025908388 0.027434817
0.041334581 0.0034194866 0.027329762
-0.046351627 0.0070877383 0.027344599
-0.043154288 0.008021187 0.027401185
-0.039920054 0.0097590685 0.026917309
0.034864556 0.0053251842 0.027693769
0.038297273 0.0064153462 0.027525874
0.042331439 0.0075777397 0.027473526
0.046279009 0.008190386 0.027398529
-0.045232341 0.010468771 0.027786843
-0.04192261 0.012059741 0.027326038
-0.038073491 0.013410306 0.027475309
-0.034437861 0.014769237 0.0273865
0.043510228 0.011930009 0.027565191
0.046669241 0.013297838 0.027481597
-0.040740203 0.01549006 0.027525058
-0.036851533 0.016846485 0.027271694
-0.03269843 0.018038936 0.027371457
-0.0289621 0.019152598 0.027761575
0.044762786 0.015966302 0.027172059
0.047506049 0.017556455 0.027401634
0.050453156 0.018533072 0.027472952
-0.035338711 0.020255711 0.028146779
-0.031672675 0.021109588 0.027507249
-0.027399417 0.022400377 0.027491773
-0.023409959 0.023733139 0.027614258
0.047943298 0.0224848 0.027489128
0.050413597 0.022271499 0.027035242
-0.025745943 0.025669012 0.027357969
-0.022196921 0.026892314 0.027397558
-0.018084332 0.028309701 0.027478887
-0.014471377 0.029351914 0.027741497
0.047573239 0.027436769 0.027437232
0.050308585 0.025252812 0.028409023
-0.020396395 0.030583471 0.027510583
-0.016902896 0.031601693 0.027498839
-0.012969169 0.033029862 0.027513044
-0.0093572456 0.034362156 0.027414398
0.04419215 0.033376351 0.027476849
0.046520166 0.032076001 0.027392376
-0.011662351 0.036263127 0.027339885
-0.0078133447 0.037696909 0.027412951
-0.0038990804 0.03906776 0.0275279
0.03937212 0.039346371 0.027650524
0.042623769 0.037528295 0.027432524
0.045740355 0.036055937 0.02742416
-0.0062528546 0.041185826 0.027433638
-0.0025762224 0.042586002 0.027382569
0.0012179591 0.043923076 0.027548112
0.034340762 0.04441398 0.027819244
0.037842311 0.04288872 0.027429163
0.041017 0.041657947 0.027335476
-0.0013534791 0.046085235 0.027407069
0.002672459 0.047311582 0.027441686
0.006789627 0.048688866 0.027381139
0.010652848 0.049707744 0.027881566
0.028700231 0.049293172 0.027351335
0.032739807 0.04795118 0.02743252
0.036616322 0.046762075 0.027385591
0.0043996433 0.050635923 0.026841188
0.007968328 0.051722866 0.027392268
0.012475041 0.052769903 0.027456963
0.017484086 0.053316332 0.027481725
0.022562053 0.053127605 0.027495194
0.027380588 0.052469157 0.027379869
0.031515099 0.051680014 0.027418958
0.035111926 0.050019398 0.026508305
0.013652758 0.055669308 0.027070301
0.017767999 0.056101754 0.027428875
0.021979058 0.056035209 0.027386686
0.026335035 0.055600502 0.02702965
-0.021465531 -0.035380598 0.031660236
-0.018282725 -0.035185754 0.03173751
-0.014854753 -0.035212468 0.031344254
-0.031342857 -0.030599346 0.032297526
-0.027193947 -0.031557918 0.032379851
-0.02258493 -0.032380112 0.032423064
-0.017656079 -0.03254772 0.03242375
-0.012619433 -0.032126948 0.03235377
-0.0081722578 -0.031107262 0.032385785
-0.0047036246 -0.03015493 0.032551296
-0.036143649 -0.026319977 0.032359459
-0.03247739 -0.027450567 0.032419026
-0.028138988 -0.028836247 0.032478534
-0.024213713 -0.029723093 0.032399409
-0.010983133 -0.029670864 0.032476638
-0.0069208713 -0.028590765 0.032471191
-0.0030138665 -0.026794717 0.032414123
0.0011723472 -0.02539208 0.032956053
-0.040916324 -0.021245658 0.03292501
-0.03730531 -0.022424059 0.032475799
-0.03379292 -0.023775617 0.032388456
-0.0013632353 -0.023837287 0.032377858
0.0022757153 -0.022273937 0.032379385
0.0057437578 -0.02066849 0.032190569
-0.045495592 -0.015522229 0.033696227
-0.042053021 -0.017205352 0.032538738
-0.038645543 -0.018343637 0.032450426
0.0037097745 -0.018933816 0.032652043
0.0076282243 -0.017642658 0.032473132
0.011672281 -0.01609654 0.032493997
0.015819991 -0.015022358 0.032108862
-0.046074368 -0.011974792 0.032405682
-0.043067485 -0.012884224 0.03248043
0.0089414287 -0.014474064 0.032592267
0.013197162 -0.013357141 0.032505613
0.017158674 -0.011822206 0.032451298
0.020862319 -0.010653125 0.032173995
-0.046754047 -0.0074296044 0.032481469
-0.044273872 -0.0083241807 0.032467827
0.014587168 -0.0098164249 0.032177094
0.018370332 -0.0088108694 0.032458298
0.022443062 -0.0075407177 0.032376546
0.026808213 -0.0063174493 0.032296717
0.030527109 -0.0052344729 0.031849105
-0.046942037 -0.0025336836 0.032459795
-0.044736128 -0.0032172315 0.032550152
0.023554407 -0.0041669169 0.032523636
0.027767245 -0.0030374713 0.032537311
0.032069597 -0.0021020938 0.032368883
0.036252014 -0.00096568436 0.032394849
-0.050018866 0.0005163016 0.034505717
-0.047020704 0.0023969768 0.032439608
-0.04450668 0.0036327792 0.032358903
0.029336361 0.00042190083 0.033026613
0.033018019 0.0018417602 0.032440789
0.037191428 0.0027589391 0.032391187
0.041364428 0.0039144051 0.032363303
-0.046184532 0.0071481881 0.032485947
-0.043066878 0.0079961503 0.032446411
-0.039746445 0.0096529648 0.031507026
0.034358591 0.0052748318 0.032599352
0.038209151 0.0066091698 0.032462202
0.042249847 0.0077283662 0.0323353
0.046180598 0.0084946733 0.032453131
-0.045217693 0.010674017 0.032517355
-0.04194133 0.011922931 0.032471377
-0.038091842 0.013271981 0.032493852
-0.034221333 0.014605257 0.032114699
0.039919868 0.010069619 0.032790031
0.043463405 0.012035364 0.032408722
0.046400823 0.013167813 0.032398328
-0.040734921 0.015478089 0.03251176
-0.036900263 0.016793109 0.03244023
-0.032699432 0.017985135 0.032418508
-0.028894603 0.019056298 0.032462068
0.04456393 0.015806232 0.032574154
0.047414519 0.017484421 0.032429323
0.050409179 0.018450184 0.032140385
-0.035316866 0.020184191 0.031559188
-0.031650461 0.021045996 0.032328956
-0.027415022 0.022418676 0.032341409
-0.023392821 0.023790283 0.032362562
0.047889918 0.02246606 0.03245832
0.050405119 0.022242529 0.032548066
-0.025719525 0.025553284 0.032257285
-0.022006266 0.026907953 0.032426432
-0.01808295 0.02837899 0.032355376
-0.014494224 0.029512394 0.03242109
0.044727411 0.029813318 0.03291421
0.047598705 0.02747843 0.032380719
-0.020362988 0.03015811 0.031883348
-0.01694636 0.03147734 0.032431204
-0.01296711 0.032952257 0.032449368
-0.0093053728 0.034226663 0.032698661
0.044112038 0.033370268 0.03255713
0.046611167 0.032084543 0.032439876
-0.011473338 0.036257114 0.032380883
-0.0077356487 0.037661839 0.032435905
-0.0038881367 0.038966198 0.032394841
0.03924676 0.039263658 0.032560751
0.042623654 0.037612297 0.032437008
0.045665998 0.036417332 0.032399002
-0.0063055116 0.041234117 0.032383475
-0.0026244228 0.042612847 0.032406237
0.001252502 0.043910209 0.032362375
0.034350831 0.044387747 0.032299686
0.037823051 0.042843342 0.032444205
0.041167911 0.041583974 0.03251639
-0.0014837943 0.046212304 0.032494061
0.0027574678 0.047288455 0.032450408
0.0069081839 0.048748557 0.032443371
0.011009824 0.049702764 0.03306691
0.028637188 0.049274426 0.032341409
0.032700304 0.047897432 0.03247644
0.036651514 0.046634827 0.032463845
0.0042591384 0.05040437 0.032669798
0.0080213025 0.051581278 0.032492347
0.012453776 0.052722938 0.032450289
0.017520789 0.05324512 0.032428946
0.022633325 0.052973472 0.032411855
0.027351122 0.052307691 0.032438263
0.03149635 0.05148153 0.032360882
0.013364185 0.055473447 0.032646153
0.017674265 0.055875707 0.032364424
0.022046322 0.055844788 0.032625817
0.025420457 0.055749837 0.032441456
-0.021654867 -0.035272073 0.036459666
-0.016190963 -0.035203386 0.038300861
-0.014362882 -0.035170414 0.037577897
-0.031305101 -0.030661786 0.037500057
-0.027247578 -0.031749178 0.037538048
-0.02260107 -0.032415953 0.037430361
-0.017553672 -0.032555558 0.037534911
-0.012641659 -0.032270346 0.037508324
-0.0080282083 -0.031214403 0.037510399
-0.0046526981 -0.030185513 0.037539717
-0.036071632 -0.026228374 0.037418284
-0.032493535 -0.027448311 0.037472859
-0.028238157 -0.028865758 0.037387192
-0.023974309 -0.02972604 0.036362179
-0.01145643 -0.029660087 0.037458785
-0.007000885 -0.028504709 0.037570443
-0.0029824988 -0.026896708 0.037521355
0.0010925981 -0.025704671 0.037758
-0.040597342 -0.021232286 0.037282769
-0.037327729 -0.02236753 0.03745009
-0.033902723 -0.02383488 0.037514832
-0.0012810399 -0.023934364 0.037375204
0.0024033822 -0.022313492 0.037463661
0.0058268681 -0.020760179 0.037676323
-0.045463458 -0.015376976 0.036071561
-0.04188079 -0.01714465 0.037503425
-0.03885236 -0.01825276 0.037422214
0.0038830535 -0.018903153 0.037439518
0.0077031367 -0.017775318 0.037476446
0.011567033 -0.016221425 0.037375193
-0.046005704 -0.011675284 0.03744971
-0.043049 -0.012908495 0.03746983
-0.039842665 -0.014582588 0.038092993
0.009549466 -0.014470665 0.037766356
0.013106184 -0.013313441 0.037496865
0.016991766 -0.011752428 0.037394188
0.020641673 -0.010510871 0.0372389
-0.046854548 -0.0073577538 0.037513178
-0.044292614 -0.0081080068 0.037497453
0.014401354 -0.0096855778 0.038052149
0.018243162 -0.0086224927 0.037520111
0.022370653 -0.0074516125 0.03750506
0.026714133 -0.0060401652 0.037355103
-0.046946112 -0.0025466045 0.037506837
-0.04469135 -0.002775861 0.037862625
0.023571022 -0.003977308 0.037699983
0.027760314 -0.0028471509 0.037475474
0.032202058 -0.0019191965 0.037510287
0.036296915 -0.0008817488 0.037770607
-0.046990063 0.0024125574 0.037420653
-0.044441018 0.0033735363 0.037522834
0.0291487 0.00057302945 0.037484474
0.032875303 0.0019390748 0.03754694
0.037165694 0.0027171571 0.037417568
0.041335642 0.0040108883 0.037356224
-0.046071224 0.0068539358 0.037341103
-0.043162405 0.0079644723 0.037466623
-0.039628085 0.0099735614 0.036538418
0.034700058 0.00556663 0.037647635
0.03824576 0.0067552598 0.037483301
0.042271294 0.0077794082 0.037453882
0.046275515 0.0084825261 0.037617672
-0.045259126 0.010288958 0.037257921
-0.041890051 0.011927702 0.037506893
-0.038112205 0.013215533 0.037398946
-0.03453036 0.014806319 0.038164515
0.039674293 0.010211301 0.03772461
0.043409973 0.011979065 0.037488088
0.046711497 0.013004025 0.037517823
-0.040411107 0.015805136 0.037335206
-0.036901381 0.016826851 0.037496597
-0.032807581 0.018061467 0.03748063
-0.029027488 0.019255185 0.03725519
0.044519581 0.015691148 0.037153304
0.047316305 0.017433263 0.037478842
0.050396901 0.018551324 0.03735625
-0.031571973 0.021026095 0.037461333
-0.027365543 0.022419764 0.03748478
-0.02355448 0.023772588 0.037425634
0.047939807 0.02256244 0.03751545
0.050452296 0.021988813 0.037101541
-0.025451045 0.02541431 0.037634864
-0.022106795 0.02690733 0.037445839
-0.018164756 0.02857068 0.037528601
-0.014487967 0.029679285 0.037501268
0.044764824 0.029731 0.036728054
0.047547597 0.027485365 0.037550412
0.05016182 0.026009275 0.038523346
-0.020119583 0.030361688 0.037235193
-0.016924225 0.031481028 0.037478849
-0.012988917 0.033055708 0.037519444
-0.0090034204 0.034343626 0.037238128
0.044109389 0.033370562 0.037560269
0.046532609 0.032011826 0.037549146
-0.011447722 0.036249112 0.03748041
-0.0077062561 0.037644722 0.037465949
-0.0039660945 0.038937718 0.037548747
0.039487839 0.039212517 0.03752039
0.042659659 0.037641376 0.037482202
0.045705013 0.03628445 0.037214804
-0.0063537876 0.041087285 0.037407599
-0.0025453195 0.042520568 0.037473898
0.0012799781 0.043842357 0.037491217
0.034563463 0.044572867 0.037582722
0.037962332 0.042892493 0.037476849
0.041132592 0.041632168 0.037454288
-0.0013397302 0.046205983 0.037426442
0.0027411282 0.047265969 0.03746378
0.0069406345 0.048662238 0.037469819
0.01073346 0.049676396 0.037180588
0.028633054 0.049319383 0.037422579
0.032749519 0.047942564 0.037460547
0.036547221 0.046682674 0.037490699
0.0045705601 0.050575305 0.037161451
0.0081377067 0.051601239 0.037506707
0.012553107 0.052622449 0.037486278
0.017651044 0.053174384 0.037514631
0.022633269 0.052877732 0.037474904
0.027340783 0.052347094 0.037471876
0.031559411 0.051317234 0.03736271
0.035689689 0.050072148 0.039681815
0.013430915 0.05528814 0.036954883
0.01761467 0.05579507 0.037195571
0.022376183 0.055791214 0.037390582
0.025837235 0.055535793 0.037683465
-0.021580167 -0.035213187 0.043025602
-0.0177559 -0.035227336 0.042854842
-0.014294513 -0.03521369 0.042111192
-0.031081399 -0.03077586 0.042682763
-0.027161501 -0.031744763 0.042676616
-0.022559773 -0.032419641 0.042571913
-0.017543273 -0.032657292 0.042467609
-0.012646207 -0.03220994 0.042519376
-0.0080257477 -0.031352691 0.042393029
-0.0045687868 -0.030419754 0.041878957
-0.036085229 -0.026139202 0.042523015
-0.032533538 -0.02746688 0.042582564
-0.028214438 -0.028921757 0.042561159
-0.024233257 -0.029887505 0.043019664
-0.011028813 -0.029504351 0.04222073
-0.006977269 -0.028430222 0.042479251
-0.0029094287 -0.026913162 0.042483278
0.00079215865 -0.025550434 0.042465065
-0.040444765 -0.021145079 0.042310163
-0.037359748 -0.022370271 0.042520884
-0.03405628 -0.023853904 0.042509377
-0.00124033 -0.023813158 0.042652905
0.0023691214 -0.022252046 0.042557213
0.0058215861 -0.020712806 0.042555071
-0.045249969 -0.015373392 0.043201908
-0.041913953 -0.017135682 0.042649899
-0.038919736 -0.018352395 0.04254771
0.0037838917 -0.019099331 0.042605281
0.0076345336 -0.017663931 0.042559013
0.011616029 -0.016196469 0.042542409
-0.045895182 -0.011769679 0.042385794
-0.043207418 -0.012881133 0.042528141
0.0092814658 -0.014438181 0.042844828
0.012878307 -0.013300387 0.042579524
0.017046029 -0.01175983 0.042541895
0.020630108 -0.010604979 0.042643771
-0.046631042 -0.0073507223 0.042550802
-0.044331718 -0.0081921108 0.042430621
0.014641368 -0.0096504316 0.043788508
0.018219225 -0.0085067907 0.042576909
0.022254961 -0.0073486911 0.042525925
0.026503712 -0.0060446463 0.042438839
-0.046925236 -0.0024838482 0.042580474
-0.044734113 -0.0032256851 0.04193069
0.023448214 -0.003988992 0.042687792
0.027695682 -0.0027563472 0.042508766
0.032118049 -0.002003019 0.042489495
0.036444854 -0.00069427839 0.042125642
-0.046901472 0.0024245593 0.042550743
-0.04447592 0.0033205431 0.042310663
0.02905957 0.00063424016 0.042475823
0.032848589 0.0020209369 0.042525537
0.037243851 0.0026893844 0.042498838
0.041287191 0.0038000783 0.042542323
-0.045971386 0.0069195312 0.042530365
-0.043211702 0.0078586955 0.042527877
-0.039820306 0.0099310819 0.043992471
0.03426192 0.0055757547 0.043414023
0.038093124 0.0068270462 0.042516753
0.042289298 0.0078343078 0.042441763
0.046019211 0.0081363553 0.0422034
-0.0450943 0.011083098 0.041750673
-0.041948084 0.011933461 0.042612258
-0.038251523 0.013309658 0.042450644
-0.034413841 0.014740338 0.042190917
0.043319825 0.011973323 0.042535637
0.046502091 0.013232424 0.042467952
-0.040579714 0.01614105 0.042846274
-0.036960389 0.016853869 0.042620532
-0.032762539 0.01811007 0.042585183
-0.028975135 0.019283162 0.042577397
0.044531308 0.015789287 0.042299252
0.047472704 0.017462617 0.042498637
0.050324749 0.018338609 0.042536914
-0.035189882 0.020115433 0.041096374
-0.031616874 0.021078339 0.042456143
-0.027429353 0.022404335 0.042557534
-0.023408052 0.023928359 0.042558961
0.047979265 0.022473827 0.042502709
0.05046428 0.02121499 0.042270858
-0.025470603 0.025419649 0.042582266
-0.022018762 0.026875256 0.042551223
-0.018081838 0.028457802 0.042477701
-0.014814613 0.029428601 0.042836398
0.044924099 0.02971185 0.044125281
0.047590245 0.027496111 0.042529564
0.050351162 0.025433369 0.042322166
-0.020206695 0.030628225 0.042967778
-0.016985532 0.031365406 0.042578336
-0.012978347 0.032914829 0.042488363
-0.0089926561 0.034331042 0.042466126
0.044154916 0.033252433 0.042432908
0.046639647 0.031931438 0.042537186
-0.01144437 0.036121842 0.042440176
-0.007608972 0.037631322 0.042523026
-0.0039000243 0.038937688 0.042551469
0.039399333 0.039229836 0.042669952
0.04258512 0.037651226 0.042540409
0.045563631 0.035989761 0.042658076
-0.0062211896 0.041078925 0.042390961
-0.0025108096 0.042481817 0.04251032
0.0012457902 0.043779735 0.042585067
0.034331743 0.044494029 0.04239298
0.037853029 0.042843558 0.042522874
0.041129366 0.041466288 0.042551998
-0.001139623 0.046114028 0.042430829
0.0026519559 0.04735516 0.042554598
0.0070085768 0.048681397 0.042580429
0.010841221 0.049803767 0.042358954
0.028652232 0.049296912 0.042637572
0.03271595 0.0478383 0.04254711
0.036584139 0.04679396 0.042592742
0.0042412151 0.050557751 0.042837489
0.0081629856 0.05153802 0.042565014
0.012538746 0.0525924 0.042446833
0.01755335 0.053099371 0.042521898
0.022609299 0.05306517 0.042547077
0.0272427 0.052269123 0.0425402
0.031633992 0.051176224 0.042404275
0.035344228 0.050132185 0.041914973
0.013741704 0.055343539 0.042632721
0.017750192 0.055721376 0.04255243
0.022385793 0.05584706 0.042544696
0.025726223 0.05553681 0.042797621
-0.026437622 -0.035156112 0.048478074
-0.021445222 -0.03528538 0.048037123
-0.017772805 -0.035260491 0.047314275
-0.014914514 -0.035066903 0.047597907
-0.031449396 -0.030702641 0.047626037
-0.027150271 -0.031949628 0.047576196
-0.02252873 -0.032437645 0.047529966
-0.017503394 -0.032683492 0.047508359
-0.012616223 -0.03206617 0.047544211
-0.0080517242 -0.031206062 0.047575653
-0.0047368994 -0.03022847 0.047368828
-0.036150541 -0.026033288 0.047369216
-0.032437418 -0.027428033 0.047642294
-0.028226769 -0.028855586 0.047480624
-0.024416987 -0.029709579 0.046848834
-0.011084432 -0.029536443 0.046940088
-0.0069339974 -0.028578319 0.047547735
-0.0028680332 -0.026872097 0.04748581
0.00063058769 -0.025407661 0.047513857
-0.040479802 -0.021010406 0.046943996
-0.037216943 -0.022268578 0.047568507
-0.033815857 -0.023869807 0.047739435
-0.0012222006 -0.02386174 0.04763769
0.0024202154 -0.022236684 0.047623403
0.0059712534 -0.020709794 0.047764722
-0.045370869 -0.015282941 0.045120735
-0.041782364 -0.01716665 0.047548279
-0.038766049 -0.01827839 0.047589857
0.0038034031 -0.018972879 0.047452345
0.0076929629 -0.017579159 0.047566988
0.01163259 -0.016185844 0.047679778
-0.045799177 -0.011688426 0.047579274
-0.043241292 -0.012842417 0.04756885
-0.039916452 -0.014944304 0.04526335
0.0090692053 -0.014391995 0.047733668
0.012932923 -0.012975926 0.04762407
0.017017661 -0.011773836 0.047609285
0.02056523 -0.010627759 0.047432978
-0.046580855 -0.0072925864 0.047519673
-0.044353325 -0.0081345523 0.047582529
0.01439038 -0.0095681567 0.047389064
0.018062724 -0.008516524 0.047526214
0.022169847 -0.0072750151 0.047612906
0.026415508 -0.0059340391 0.047430012
-0.046966415 -0.0025605334 0.047573946
-0.044865705 -0.0024421974 0.047969792
0.02333127 -0.003930171 0.047666751
0.027570834 -0.0027528789 0.047588009
0.032059208 -0.001960349 0.04752022
0.035790704 -0.0008952145 0.047530282
-0.046852611 0.0023536221 0.047487129
-0.044520982 0.0033595702 0.047385439
0.029110355 0.00082971726 0.047452401
0.032780133 0.0020607375 0.04754971
0.037203804 0.0026888985 0.047511481
0.041244633 0.0036851938 0.04739571
-0.045850091 0.006960067 0.047421202
-0.043175772 0.007998053 0.047570627
-0.039630875 0.0098322425 0.04874634
0.03448832 0.0054669417 0.047642134
0.037996955 0.0068659862 0.047411207
0.042244148 0.0077587408 0.047557648
0.046075199 0.0076758577 0.047451872
-0.045255646 0.010434022 0.04973441
-0.041801896 0.011997311 0.047603402
-0.038106315 0.013282263 0.047577471
-0.034841657 0.014667692 0.048234131
0.039899547 0.010823897 0.048926517
0.043397326 0.011909206 0.047600966
0.046338797 0.013255122 0.047478747
-0.040588539 0.015670614 0.047450393
-0.037029918 0.016890636 0.047595415
-0.032802273 0.018095044 0.047604125
-0.029151542 0.019250872 0.047517512
0.044734303 0.015647279 0.047332361
0.047450103 0.017562151 0.047542863
0.050334353 0.018283164 0.046725161
-0.031635623 0.021052981 0.047677577
-0.02744746 0.022553569 0.047567405
-0.023703093 0.024051843 0.047258556
0.048071362 0.022378221 0.047491618
0.050285921 0.021700529 0.04720851
-0.025608288 0.025563862 0.047760472
-0.022084618 0.026992507 0.047623061
-0.018374991 0.028661409 0.047419485
-0.014849433 0.029671825 0.047067087
0.047595099 0.027466524 0.047537941
0.050111156 0.025939951 0.046610016
-0.020259509 0.03046092 0.04749256
-0.016842723 0.031454377 0.047591679
-0.013018138 0.033017866 0.047491651
-0.009193779 0.034293871 0.047527354
0.044134352 0.033406839 0.047514532
0.046585817 0.03205822 0.047584213
-0.011595829 0.036055718 0.047525022
-0.007657445 0.037606567 0.047652829
-0.0039137336 0.038950432 0.047621083
0.039341096 0.039162606 0.047709841
0.042567551 0.03755635 0.04753587
0.045503195 0.036342759 0.04775494
-0.0061146319 0.040947028 0.047463819
-0.0023992385 0.04244351 0.047588002
0.0013270458 0.043819863 0.047639795
0.034238819 0.044370849 0.047484316
0.037762057 0.042853128 0.047573399
0.041028403 0.041632961 0.047501881
-0.0010817322 0.045915663 0.047438499
0.0026680417 0.04733007 0.047558971
0.0070264339 0.048602689 0.047597721
0.011015999 0.049707584 0.047640368
0.028701887 0.049304966 0.047611669
0.032643795 0.047882423 0.047573887
0.036494177 0.046843667 0.047479428
0.0036807971 0.050570227 0.04771157
0.0081002759 0.051541962 0.047527805
0.012534824 0.052546814 0.047524411
0.017522793 0.053154089 0.04756254
0.022514921 0.053007979 0.04757078
0.027257159 0.052245557 0.047597654
0.031402748 0.051251937 0.047519606
0.035294123 0.05000928 0.045641162
0.014137143 0.055416889 0.047475349
0.01760203 0.055784758 0.047425706
0.02236571 0.055831041 0.047357719
0.02591799 0.055235896 0.047293905
-0.021646744 -0.035257865 0.052187935
-0.017690944 -0.035320647 0.052080911
-0.01420518 -0.035222985 0.05182945
-0.031374086 -0.030758688 0.052200507
-0.027158923 -0.031790629 0.052532226
-0.022455966 -0.03249139 0.052534942
-0.017557926 -0.032726496 0.052605413
-0.012586679 -0.032075055 0.05258527
-0.0079702465 -0.031337164 0.05251408
-0.0047324155 -0.030158132 0.05128793
-0.035918325 -0.025913246 0.052159496
-0.032391813 -0.027445873 0.052508034
-0.028305553 -0.028833309 0.052411176
-0.010859868 -0.029531132 0.052814107
-0.0069478629 -0.028593684 0.052522011
-0.0029132382 -0.026925733 0.052485451
0.00056365214 -0.025555534 0.052359305
-0.040541429 -0.020672316 0.052346267
-0.037252337 -0.022350542 0.05253198
-0.034008052 -0.023821466 0.05252938
-0.0011678017 -0.023879196 0.052683193
0.0024391839 -0.022246594 0.052615847
0.0061294497 -0.020841355 0.052814849
-0.041885722 -0.017217996 0.052644052
-0.038692493 -0.018310327 0.052541096
0.0040810579 -0.019051069 0.052497499
0.0076952456 -0.017589061 0.052586567
0.011825599 -0.016266257 0.052687045
-0.045980345 -0.011595239 0.052577905
-0.043161139 -0.012907134 0.052595943
0.0089794714 -0.01451821 0.052587368
0.012941373 -0.013054667 0.052540105
0.016993022 -0.011896688 0.05250835
0.020829896 -0.010553975 0.052678362
-0.04643368 -0.0073449151 0.052680828
-0.044316318 -0.0082306266 0.052648913
0.014442702 -0.0097588729 0.052498121
0.018112883 -0.0084749172 0.052499529
0.022254422 -0.0072977925 0.052641876
0.026538 -0.0059629013 0.052659802
-0.046909198 -0.0024783951 0.052548416
-0.044801366 -0.0031239244 0.05259474
0.019781543 -0.0047194241 0.054464441
0.023213232 -0.0038166917 0.052645251
0.027681392 -0.0027961263 0.052563883
0.032136932 -0.0019117461 0.052503359
0.036084238 -0.00077282864 0.052647915
-0.04664956 0.0023517061 0.052480936
-0.044533424 0.0033123852 0.05253759
0.02888749 0.00063685328 0.052782837
0.032777075 0.0020021186 0.052501831
0.037235014 0.0026946196 0.052607786
0.041234814 0.0037856007 0.052572649
-0.046022214 0.0068516615 0.052554056
-0.043170784 0.0080039743 0.052534994
-0.039556254 0.009729851 0.052434836
0.034443434 0.0055264519 0.052620474
0.038054191 0.0067949984 0.052522626
0.042389318 0.0077199098 0.052539639
0.046006091 0.0071028047 0.052315611
-0.045522314 0.010075801 0.050693449
-0.041670751 0.012071291 0.052561752
-0.038041651 0.013228801 0.052574553
-0.0343026 0.014570784 0.052555412
0.039651789 0.010329843 0.051025383
0.043390203 0.011902023 0.052564599
0.046153449 0.013120371 0.052352808
-0.040617965 0.015962638 0.05278657
-0.037026271 0.017032854 0.05251174
-0.032745011 0.0179414 0.05259607
-0.029035263 0.01921137 0.052524954
0.044693049 0.015990095 0.052084375
0.047451872 0.017521307 0.052589346
0.050344098 0.018682709 0.051220257
-0.03555391 0.020365788 0.05127345
-0.031749383 0.020919669 0.052480996
-0.027450429 0.022523791 0.05251262
-0.023756204 0.024097666 0.052639414
0.04811478 0.022398472 0.052543011
0.050274875 0.023243437 0.052830253
-0.025735395 0.025500571 0.052432299
-0.022207852 0.026951119 0.052531909
-0.018418986 0.028745905 0.052621797
-0.014692894 0.029693397 0.051582504
0.044873782 0.029251868 0.05281277
0.047526408 0.027396213 0.052665249
0.050115597 0.026057959 0.052342385
-0.020583792 0.030173965 0.051768143
-0.01691206 0.031417295 0.052452121
-0.012849279 0.033093933 0.052499663
-0.0091572329 0.034334861 0.052540705
0.044162404 0.033312272 0.052625585
0.046598252 0.032064095 0.052686937
-0.011527811 0.036060609 0.052528221
-0.0076343212 0.0376621 0.0525962
-0.003663708 0.03896815 0.052568056
0.039212961 0.039255414 0.052202471
0.042646632 0.037543055 0.052552894
0.045663282 0.036270026 0.05237449
-0.0060850861 0.040870331 0.0525681
-0.0023241458 0.042306025 0.052592259
0.00151994 0.043590728 0.052646942
0.034312349 0.044271376 0.052488554
0.037771858 0.042834632 0.05255818
0.041048981 0.04150876 0.052567802
-0.00083105348 0.045929156 0.052420463
0.0027202216 0.047248427 0.052604005
0.0070436979 0.04848228 0.052566186
0.010983258 0.049621399 0.052660644
0.028645437 0.049117606 0.052667897
0.032637365 0.047834191 0.05260792
0.036565885 0.046749786 0.052577354
0.0036016214 0.050612561 0.052533202
0.0082226666 0.051383648 0.052473739
0.012597667 0.052368309 0.052622817
0.017479004 0.052988861 0.052600153
0.022590365 0.052989699 0.052563231
0.027315537 0.052210435 0.052502405
0.031501997 0.051312644 0.052639179
0.035003368 0.050300397 0.05402809
0.014346444 0.055365123 0.052153822
0.017796483 0.055573907 0.052386627
0.022366928 0.055814765 0.052321635
0.025614094 0.055363704 0.052138306
-0.021869158 -0.035167757 0.057368696
-0.019391665 -0.035047285 0.057520077
-0.031422082 -0.030836495 0.057719223
-0.027073232 -0.031867072 0.057503987
-0.022465967 -0.032493334 0.057409965
-0.017571058 -0.032741331 0.057606868
-0.012506287 -0.032048848 0.057524104
-0.008289868 -0.031294253 0.057369072
-0.03573845 -0.026127005 0.057527725
-0.032461852 -0.027403364 0.057523739
-0.028215101 -0.028823799 0.05747918
-0.024406802 -0.029763078 0.057316292
-0.010786988 -0.029447509 0.058035273
-0.0068927584 -0.02854907 0.057528213
-0.0028274215 -0.026762892 0.057493929
0.0005998264 -0.025594855 0.057529576
-0.04062688 -0.020897007 0.057774581
-0.037251536 -0.022313166 0.057522431
-0.033976693 -0.023655444 0.057638593
-0.0013955412 -0.024041148 0.057425905
0.002456812 -0.022362337 0.057588082
0.0062009911 -0.020795384 0.057734404
-0.041939225 -0.017163331 0.057553101
-0.03867146 -0.018382529 0.057528969
0.0041780206 -0.019264624 0.057632569
0.0078078015 -0.01774345 0.057503693
0.011953826 -0.016256886 0.057515506
0.015710553 -0.015111337 0.058365479
-0.045986723 -0.01186139 0.057573613
-0.043192137 -0.012900056 0.057554945
0.0093207341 -0.014448287 0.057400312
0.013003958 -0.013102436 0.057487044
0.017160969 -0.012077309 0.057493452
0.020836392 -0.010915484 0.057318676
-0.046595387 -0.0072370549 0.057521641
-0.044366613 -0.0083147082 0.057591345
0.014381444 -0.0098781269 0.057039686
0.01811341 -0.0084166424 0.057474997
0.022326099 -0.0074909055 0.057517339
0.026451064 -0.0061011845 0.057604156
-0.047020156 -0.0024108901 0.057515018
-0.044826183 -0.0027693503 0.057693847
0.023388503 -0.0039777271 0.057368066
0.027634326 -0.0027890278 0.057452571
0.032078795 -0.0018272527 0.05740431
0.036394425 -0.00052387064 0.057841942
-0.046824154 0.0022562775 0.057592504
-0.044566914 0.0034129124 0.057371262
0.028917881 0.00083866646 0.057198409
0.032867618 0.0020289018 0.057481054
0.037286177 0.0027999305 0.057538502
0.041389674 0.0037006885 0.057560064
-0.04608633 0.0066515524 0.057360131
-0.043160699 0.0079634739 0.057461143
-0.039778922 0.0096562374 0.057397872
0.034298293 0.0051992601 0.057048779
0.038111474 0.0066606659 0.057473846
0.042130962 0.007870486 0.057554919
0.04566393 0.0077169547 0.056499839
-0.045123331 0.010164179 0.055694677
-0.041463546 0.011961007 0.057371356
-0.038012303 0.013181974 0.057511549
-0.034621187 0.014355367 0.057710029
0.039915059 0.010015379 0.058488842
0.04342423 0.011913902 0.057528757
0.046063088 0.013408475 0.057465144
-0.040462442 0.015893817 0.057597183
-0.036809843 0.016871674 0.057570498
-0.032732751 0.01807042 0.057562165
-0.028897332 0.019188998 0.057884958
0.044854142 0.015799828 0.057244983
0.047452264 0.017605396 0.057530105
-0.035296701 0.020163748 0.057809018
-0.031554032 0.020957686 0.057478167
-0.027465142 0.022520799 0.057464328
-0.023760019 0.023922255 0.057690986
0.048052769 0.022444377 0.057479367
0.050236437 0.023103867 0.057280928
-0.025993844 0.025462328 0.057221901
-0.022197811 0.026783265 0.057533734
-0.018265575 0.028752068 0.057632126
-0.014690147 0.029905846 0.057477374
0.044847548 0.029638045 0.057139289
0.047581781 0.02745281 0.0576493
0.050140694 0.025510261 0.057919744
-0.020105582 0.030257508 0.05680133
-0.01681019 0.031317197 0.057568405
-0.012870689 0.033048991 0.057492085
-0.0090955663 0.034361675 0.057760563
0.044066451 0.033328395 0.057728082
0.046580803 0.032080028 0.057586901
-0.011309157 0.036039509 0.057477169
-0.0076537137 0.037557058 0.057587136
-0.0036925208 0.038857747 0.057444174
0.039242331 0.039222289 0.057799816
0.042578898 0.037461996 0.05758699
0.045628894 0.036081884 0.057453629
-0.0060086767 0.040743284 0.057162538
-0.0022988112 0.042247493 0.057484336
0.0016715458 0.043631695 0.057555817
0.0051102778 0.044812571 0.057168104
0.034175489 0.044312406 0.057607826
0.037730068 0.042751066 0.057463013
0.041056834 0.04141311 0.057494696
-0.00052180648 0.045826986 0.057435684
0.00285551 0.047228053 0.057493605
0.0070815193 0.048352525 0.057522599
0.011307267 0.049562186 0.057578083
0.028513901 0.049108706 0.057389949
0.03264004 0.047824252 0.057512615
0.036397409 0.04680733 0.05736604
0.0036796115 0.050462309 0.057260871
0.0082152979 0.051307861 0.057465486
0.012679132 0.052317783 0.057543661
0.017429002 0.052825026 0.057492964
0.022538066 0.052902091 0.057418976
0.027290491 0.052208379 0.057461496
0.031500924 0.05164462 0.057471566
0.014118904 0.055200495 0.056668542
0.017540768 0.055522025 0.057415593
0.022345465 0.055653777 0.057468161
0.025379799 0.055262793 0.057679962
-0.021922177 -0.035388023 0.062026929
-0.016453775 -0.035306673 0.06323918
-0.014618706 -0.03506209 0.062823914
-0.031276844 -0.030576844 0.062552772
-0.027139559 -0.031824056 0.062427316
-0.022666784 -0.032657627 0.062449086
-0.017530875 -0.032821279 0.062350292
-0.01237903 -0.032195453 0.062534586
-0.0082384646 -0.03123359 0.062444177
-0.0047313636 -0.030021433 0.062665895
-0.035735566 -0.026031284 0.062717162
-0.032441717 -0.027399121 0.062525027
-0.028308446 -0.028899021 0.062353775
-0.023689134 -0.029996706 0.062334828
-0.010884429 -0.029584102 0.062380541
-0.0069062053 -0.028499506 0.062501155
-0.0026770351 -0.026893795 0.0624667
0.00062728469 -0.025809629 0.062578574
-0.040692668 -0.020951485 0.062569596
-0.037110317 -0.022291027 0.062559433
-0.03380198 -0.023632681 0.062482294
-0.0012206543 -0.023936672 0.062427565
0.0024376845 -0.022315355 0.062400158
0.006319961 -0.020787455 0.062470291
-0.045087047 -0.015182669 0.062743135
-0.041805007 -0.017127268 0.062473454
-0.038709156 -0.018334365 0.062435284
0.0041460209 -0.01903962 0.062508084
0.0077723307 -0.01784673 0.062406804
0.011971615 -0.016321268 0.06236003
0.015750285 -0.015300989 0.063259833
-0.045984443 -0.011751758 0.062579066
-0.043156497 -0.012807371 0.062454667
0.0092711654 -0.014541928 0.062959477
0.013114303 -0.013162453 0.062336024
0.017191933 -0.012045719 0.062435962
0.020965585 -0.010848608 0.062532194
-0.046640433 -0.0073753367 0.062395576
-0.044377644 -0.008310047 0.062525414
0.014539198 -0.0098817945 0.062327564
0.018225309 -0.0087276399 0.062412757
0.022417217 -0.0075458353 0.062445447
0.026343051 -0.006216655 0.062503934
-0.050042011 -0.0014562435 0.060417976
-0.047122482 -0.0024905419 0.062493004
-0.044867039 -0.0024228038 0.062071502
0.023647744 -0.0040888912 0.062321495
0.027675442 -0.0028522271 0.062471256
0.032092392 -0.0017545697 0.062456172
0.036503948 -0.00063243136 0.062423259
-0.046817478 0.0023187059 0.062476125
-0.044550426 0.0035713548 0.062677048
0.029210055 0.00058336608 0.062594309
0.032915827 0.001988577 0.062516451
0.037305415 0.0026814444 0.062574685
0.041434683 0.0033483221 0.062591203
-0.04616268 0.0064854221 0.062453318
-0.043137897 0.0080944337 0.062465899
-0.039709624 0.0097818011 0.061184715
0.034470301 0.0056197392 0.060954701
0.0381377 0.0067372904 0.06239856
0.042281576 0.0076872567 0.062458087
0.045706362 0.0073905126 0.062538825
-0.041339383 0.011999722 0.062463354
-0.038001645 0.013146097 0.062440488
-0.03435611 0.014449462 0.062140509
0.039953493 0.010385357 0.061067153
0.043559901 0.011974981 0.062448826
0.046191957 0.013291154 0.06260509
-0.040518984 0.015830321 0.062624454
-0.036769208 0.016674154 0.062534086
-0.032690961 0.017947085 0.062445104
-0.028943602 0.019147715 0.062504582
0.044607557 0.015759435 0.062811472
0.047336988 0.017596159 0.062488984
0.050327849 0.01842479 0.064441271
-0.035372913 0.020247815 0.064248756
-0.031655312 0.020976169 0.062538974
-0.027332092 0.022493651 0.062553734
-0.023699516 0.023833418 0.062605292
0.048154522 0.022431217 0.062520377
0.050260771 0.023412796 0.062802762
-0.025525069 0.025477743 0.062550813
-0.022113537 0.026729925 0.062539853
-0.018181859 0.028395802 0.062605932
-0.014415646 0.029587753 0.063014954
0.044825424 0.029535457 0.062028658
0.047587108 0.027484583 0.062522873
-0.016882349 0.031259689 0.062482283
-0.012952829 0.032881565 0.06246933
