# .PCD v0.7 - Point Cloud Data file format
VERSION 0.7
FIELDS x y z
SIZE 4 4 4
TYPE F F F
COUNT 1 1 1
WIDTH 1342
HEIGHT 1
VIEWPOINT 0 0 0 1 0 0 0
POINTS 1342
DATA ascii
0.060143787 0.013580866 0.17353058
-0.070147477 0.018506119 0.1727656
-0.067986064 0.017487833 0.17246039
0.057883628 0.017483713 0.1725917
0.060344264 0.017762043 0.17264573
-0.070162237 0.020840691 0.17298199
-0.067864977 0.02247612 0.17247374
0.05781493 0.022457181 0.1726819
0.060285579 0.02310879 0.17293955
-0.067355923 0.02749452 0.17255974
-0.064954244 0.029763464 0.17088628
0.05481945 0.028874325 0.17177802
0.057624787 0.027428133 0.1725733
0.060388554 0.026855258 0.17304096
-0.066674039 0.032400556 0.17257269
-0.064666256 0.033271149 0.17243424
0.054515418 0.033143494 0.17237461
0.056968946 0.032313336 0.17259085
-0.066001199 0.037078965 0.1726305
-0.06412074 0.038097423 0.1726017
0.054062657 0.037861176 0.17258771
0.056381132 0.037181012 0.17257057
-0.065395877 0.041729126 0.17243576
-0.063168302 0.042712457 0.17259671
0.053175349 0.042758498 0.17246792
0.055612624 0.041769687 0.17265391
-0.061582036 0.047176607 0.17258082
-0.05933959 0.048518926 0.17261794
0.049381875 0.048878942 0.17249408
0.052007802 0.047441609 0.17255448
0.05533855 0.045701992 0.17291896
-0.060835522 0.051652454 0.17298171
-0.057928476 0.052743334 0.17262
-0.05476917 0.054652628 0.17220299
0.04857786 0.052935652 0.17244774
0.050977182 0.052006505 0.17277867
-0.056452896 0.056809425 0.17267923
-0.053502232 0.058154948 0.17248526
0.043904293 0.058714166 0.17215118
0.046897795 0.057210807 0.17247514
0.050432257 0.055175632 0.17218006
-0.055532187 0.060517181 0.17320691
-0.05199321 0.061882097 0.17256145
-0.048491452 0.063525081 0.17246185
-0.044966906 0.064367041 0.17042021
0.038694311 0.063856512 0.17228633
0.042561498 0.062386792 0.17251582
0.045557838 0.060743246 0.17273664
-0.050557353 0.065548047 0.17250094
-0.046930742 0.066806272 0.172686
-0.043132801 0.068432771 0.17252031
-0.039838992 0.069544598 0.17304567
0.02945433 0.069708832 0.17206752
0.033102408 0.068567656 0.17243478
0.037154403 0.066963419 0.17255978
0.041166354 0.066090316 0.17289695
-0.045298886 0.070652321 0.17321518
-0.041878413 0.071376301 0.1725868
-0.037711445 0.072827086 0.17256787
-0.0333324 0.073963828 0.1724038
-0.029856317 0.07464999 0.17136797
0.019569563 0.074942477 0.17330438
0.023282018 0.074200891 0.17232035
0.027544616 0.072847709 0.17254002
0.031513948 0.071097806 0.17255625
0.037615504 0.07051079 0.17292942
0.0630721 0.074708976 0.17278725
-0.036326367 0.075754501 0.17270847
-0.032067552 0.076754063 0.17264332
-0.02763796 0.07786648 0.17252874
-0.022754328 0.078822196 0.17256443
-0.017717313 0.079335652 0.17230274
-0.012986199 0.07955236 0.17222315
-0.0075215758 0.07990586 0.17180182
0.0029829661 0.079810537 0.17242701
0.0080830678 0.07942754 0.17273693
0.012908812 0.078722864 0.17243847
0.017614275 0.077936448 0.17252243
0.022209618 0.076472096 0.17257497
0.025853708 0.075450838 0.1727019
0.064145371 0.076225236 0.17347689
0.067136273 0.078113623 0.17269804
0.070417359 0.077934466 0.1735985
-0.030448241 0.080067128 0.17455724
-0.026446229 0.080631629 0.17266375
-0.022191392 0.081060767 0.17253639
-0.017365791 0.081684634 0.17264967
-0.012508969 0.082138978 0.17259945
-0.0075852056 0.082445487 0.1726274
-0.0025354798 0.082483336 0.17260493
0.0024807754 0.082191363 0.17257497
0.0073573757 0.081716396 0.17258263
0.012092271 0.080868706 0.17266096
0.015791882 0.080297075 0.1732464
0.057498284 0.083848126 0.17246535
0.067775801 0.082616627 0.17233551
0.070414148 0.081671484 0.17218015
-0.008295076 0.085303143 0.17443086
-0.0020247814 0.08514601 0.17232315
0.054018684 0.088704228 0.17193389
0.05830849 0.087645523 0.17242777
0.062352538 0.088065639 0.17260554
0.066977829 0.087667659 0.17253183
0.073299192 0.08895649 0.17270179
0.075500168 0.087790929 0.1728933
0.054971438 0.090653159 0.17201591
0.059611104 0.09020146 0.17131442
0.062979817 0.092090592 0.17257611
0.067462027 0.092703722 0.17265576
0.071649067 0.092280924 0.17258979
0.059824467 0.099386416 0.1724903
0.06301076 0.097834453 0.17268564
0.067332625 0.097073682 0.17257777
0.070655897 0.096365206 0.17240585
0.063296698 0.10074139 0.17273587
0.065784588 0.10056919 0.17259419
-0.020911912 -0.045111988 0.17787205
-0.016992208 -0.04535218 0.17768389
-0.012525976 -0.045730568 0.17738137
-0.0076171756 -0.04571766 0.17749912
-0.0027251125 -0.045708701 0.17768496
0.002281171 -0.045613889 0.17752859
0.0070276642 -0.045283109 0.17719945
-0.031307116 -0.040543318 0.17766492
-0.026969692 -0.04145214 0.17742291
-0.022401819 -0.042220447 0.17735042
-0.01764944 -0.042930961 0.17739712
-0.012590129 -0.043478232 0.17739357
-0.0075966925 -0.04354997 0.17733447
-0.0024659261 -0.043430753 0.17730747
0.002588555 -0.042910997 0.17737761
0.0075443061 -0.042438518 0.17748983
0.012424751 -0.041891694 0.17746972
0.017214075 -0.041240331 0.17757845
0.021230627 -0.040526144 0.17731476
-0.040678587 -0.035567205 0.17767347
-0.037113126 -0.036560938 0.17746145
-0.032555025 -0.037954241 0.17739443
-0.027876046 -0.039053295 0.17742889
-0.023768196 -0.039651822 0.17706996
0.0087591298 -0.039771281 0.17718598
0.012842499 -0.039260447 0.17749244
0.01784648 -0.03837176 0.17747186
0.022371175 -0.037361432 0.17748897
0.02686487 -0.036408827 0.17746711
0.030624358 -0.035687692 0.17747089
-0.046111725 -0.03101364 0.17770754
-0.042326692 -0.032172736 0.17757174
-0.038277458 -0.033465877 0.17749719
-0.034532603 -0.034789704 0.17781593
0.023785599 -0.034434136 0.1774635
0.027758395 -0.033229236 0.17731319
0.032139737 -0.032030571 0.17736654
0.035740957 -0.030551495 0.17738727
-0.051401995 -0.026209598 0.17753451
-0.047588862 -0.027472371 0.17752358
-0.043710779 -0.028531907 0.17746119
0.033358581 -0.028648438 0.17736764
0.037231136 -0.027160086 0.1774531
0.040674716 -0.025638046 0.17751689
-0.055848375 -0.021220334 0.17766529
-0.052559309 -0.022460315 0.17760327
-0.048580162 -0.023773488 0.17747244
0.038613688 -0.023390414 0.17740148
0.042172771 -0.02218681 0.17743075
0.045534041 -0.020902369 0.176907
-0.060241066 -0.015724011 0.17778721
-0.05708313 -0.017173884 0.17756911
-0.053657778 -0.018635882 0.17737207
0.043513179 -0.018334264 0.17751284
0.046693362 -0.016937727 0.17748119
0.050040875 -0.015444963 0.1750709
-0.061096612 -0.011952409 0.1776572
-0.058470905 -0.013203254 0.17736462
0.0447537 -0.01473013 0.1776351
0.048278816 -0.012886267 0.17748852
0.051094759 -0.01176347 0.17750116
-0.065286122 -0.0057638772 0.1775952
-0.062405042 -0.0074688881 0.17753191
-0.059250399 -0.0084901629 0.1772788
0.049312703 -0.0087847933 0.17748591
0.052204281 -0.0073563023 0.17751126
0.055343844 -0.0057069254 0.17695537
-0.06583935 -0.0020009959 0.17757399
-0.063361704 -0.0028822278 0.17753834
0.053591415 -0.0027945209 0.17746033
0.055850167 -0.0016952564 0.17767648
-0.066548668 0.0027128125 0.17756416
-0.06420631 0.0018680224 0.17761683
0.054226927 0.0019623658 0.17728256
0.056457803 0.0028152454 0.17757228
-0.067198068 0.0075395219 0.1775555
-0.06479682 0.0060040229 0.17832261
0.054836992 0.0067306506 0.17667042
0.057339065 0.007616499 0.17749906
-0.070155807 0.013807654 0.17782758
-0.067996785 0.01256777 0.17765744
0.057888284 0.012565088 0.17753267
0.060119107 0.013393489 0.17771663
-0.070235215 0.017595652 0.17768538
-0.068140574 0.017610727 0.17753811
0.057928313 0.017585922 0.17753164
0.060349613 0.017522881 0.17761005
-0.070240796 0.021628233 0.17761752
-0.068151534 0.022452621 0.1775443
0.058008622 0.022482274 0.17752479
0.060413092 0.022748802 0.17753626
-0.06770698 0.027401693 0.17750806
0.054790668 0.029342074 0.17913671
0.05767129 0.027426027 0.17750427
0.060390059 0.026492689 0.17682937
-0.066874661 0.03237598 0.17758548
-0.064664103 0.033792555 0.17739363
0.054535959 0.03313202 0.1777233
0.05708611 0.032305934 0.17752483
-0.066088349 0.037272424 0.17749304
-0.064068414 0.037967887 0.17755307
0.054066118 0.03784845 0.17745616
0.056450628 0.037321817 0.17746444
-0.065499909 0.04163266 0.17759822
-0.063221484 0.042677216 0.17744833
0.053450745 0.042748339 0.1774651
0.055815585 0.041784726 0.17763765
-0.061616156 0.047345649 0.17751664
-0.059210934 0.048733257 0.17753971
0.049446069 0.048766289 0.17788728
0.052300662 0.047495339 0.17752148
0.055387735 0.04515858 0.17874883
-0.060841613 0.051525742 0.17737371
-0.058059379 0.052756388 0.17753695
-0.054777637 0.05472964 0.1768626
0.048801966 0.052958153 0.17733823
0.051185403 0.051928863 0.17752591
-0.056463063 0.056873936 0.17757036
-0.053613745 0.058232807 0.17730126
0.044041526 0.058914408 0.17723933
0.047194738 0.057350203 0.17742343
0.050176457 0.055435404 0.17864378
-0.055323966 0.060538881 0.17794803
-0.051976752 0.062008429 0.17747989
-0.048768178 0.063568518 0.17750721
0.03899901 0.064074405 0.17742419
0.042692501 0.06261573 0.17745125
0.045605347 0.060898777 0.17742468
-0.050334036 0.065769278 0.17850637
-0.046961535 0.066920184 0.17760052
-0.043263122 0.068483323 0.17741887
-0.039579373 0.069699794 0.17729078
0.033210468 0.068785697 0.17737903
0.037414815 0.067231961 0.17744215
0.041323695 0.066149376 0.17755538
-0.045289889 0.070470519 0.17825384
-0.041924562 0.071379028 0.17759426
-0.037734214 0.072811678 0.17743802
-0.033402197 0.074081182 0.17738621
0.023440644 0.074306928 0.17736943
0.027658796 0.073084243 0.17748219
0.031793322 0.071181379 0.1775834
0.037354633 0.070622049 0.17709777
0.062936656 0.074193917 0.17611739
-0.036428541 0.07578218 0.17768173
-0.032164659 0.076909505 0.17752375
-0.027631003 0.078015327 0.17747785
-0.022644578 0.07888855 0.17745903
-0.017933156 0.079383932 0.17739281
-0.012588397 0.079774395 0.1769644
-0.0073800981 0.079927839 0.17674382
0.0036175239 0.079803549 0.17731187
0.0079640467 0.079547696 0.17739116
0.012900689 0.078926422 0.17736812
0.017718455 0.077988081 0.17751999
0.022120083 0.076554567 0.17746465
0.025971541 0.075569004 0.17727813
0.064301558 0.077514544 0.17808159
0.06683293 0.078618705 0.17747097
0.070376948 0.078703813 0.17705557
-0.030082911 0.080134965 0.17734267
-0.026963381 0.080605619 0.17738783
-0.02219546 0.081323676 0.17776826
-0.017532159 0.081871986 0.1775602
-0.01259244 0.082342781 0.17750253
-0.0075265369 0.08254116 0.17749588
-0.0025366901 0.082520813 0.17747867
0.0025538995 0.082383394 0.17747727
0.0074400571 0.081805021 0.17745578
0.012193846 0.081015021 0.17758189
0.016135313 0.080263749 0.17744537
0.057734691 0.084000751 0.17729518
0.067770913 0.082403265 0.17770675
0.070343591 0.082110979 0.17730781
-0.0068163667 0.085291483 0.17818157
-0.0035836773 0.085201055 0.17843099
0.00050244509 0.085203528 0.17999685
0.05452076 0.088669114 0.17725696
0.058268875 0.087787598 0.17758349
0.062419422 0.088068128 0.17752831
0.066917941 0.087643214 0.1775606
0.073036969 0.088771753 0.17769824
0.075538464 0.087721467 0.17812158
0.059035845 0.090799063 0.17822015
0.062766902 0.092393719 0.17743763
0.067428611 0.092594355 0.17751126
0.071664363 0.092393443 0.1775104
0.059980914 0.099488631 0.17686126
0.063097194 0.097921066 0.17763363
0.067450829 0.097272113 0.17754699
0.070666045 0.096491925 0.17757054
0.059770338 0.10013741 0.17600432
0.063083075 0.10085948 0.17747377
0.065858424 0.1006062 0.17751078
-0.020724079 -0.045245729 0.18332134
-0.017019125 -0.045456875 0.18255606
-0.012336074 -0.04576904 0.18221009
-0.0074149938 -0.045843568 0.18239883
-0.0025958992 -0.045855444 0.18248974
0.0023917595 -0.045633998 0.18240848
0.0066409037 -0.045217019 0.18192241
-0.031364255 -0.040545654 0.1824429
-0.027104596 -0.041467443 0.18239464
-0.022443168 -0.042319216 0.18235727
-0.01764475 -0.043144178 0.18241216
-0.012685571 -0.043622695 0.1824616
-0.0076395725 -0.043722279 0.18239233
-0.0024260171 -0.043648485 0.18238404
0.0025285864 -0.043247547 0.18240996
0.0075997584 -0.042525794 0.18246582
0.012565857 -0.041775204 0.18238889
0.017222121 -0.041160475 0.18236913
0.021217681 -0.040592242 0.18277961
-0.040728956 -0.035592653 0.18247288
-0.037081424 -0.036639668 0.18237141
-0.032561537 -0.037992433 0.18240112
-0.027934732 -0.039182711 0.18228304
-0.02425156 -0.039538916 0.1818929
0.0090526361 -0.039720859 0.18206525
0.013065244 -0.039239731 0.18246724
0.017813101 -0.038411908 0.18239783
0.022471828 -0.037411988 0.18242007
0.026868159 -0.036444694 0.18242855
0.030783875 -0.035520803 0.1825006
-0.046372596 -0.030969221 0.18256584
-0.042422168 -0.032331172 0.1824487
-0.038214687 -0.033509251 0.1822543
-0.034437552 -0.034722757 0.18235928
0.023980057 -0.034456961 0.18255097
0.027835699 -0.033436056 0.18244939
0.032128759 -0.032032613 0.18241216
0.035906781 -0.030762853 0.18241608
-0.051357865 -0.026347775 0.18253911
-0.047673058 -0.027503148 0.18249896
-0.043778658 -0.028825538 0.18222553
0.033658735 -0.028937098 0.18237849
0.03736854 -0.027366677 0.18239006
0.040804937 -0.025662681 0.18251295
-0.055836543 -0.021166082 0.18243164
-0.052683976 -0.022562755 0.18245463
-0.048930075 -0.023971964 0.18263268
0.03887406 -0.02394159 0.18214354
0.04231723 -0.022246122 0.18240079
0.045537796 -0.020693744 0.18251324
-0.060394809 -0.015499779 0.18255068
-0.05717051 -0.017259369 0.18256022
-0.053856973 -0.018888313 0.1821793
0.0437457 -0.018339343 0.18234143
0.046850473 -0.017024389 0.18245225
0.050215438 -0.015173643 0.18376939
-0.06123884 -0.011881483 0.18246865
-0.058671985 -0.013072339 0.18245403
0.044734757 -0.014474656 0.18200247
0.048246831 -0.012953585 0.18241982
0.05109822 -0.011792696 0.18269633
-0.065216549 -0.0057933535 0.18249196
-0.062396683 -0.007444073 0.18246339
-0.05961493 -0.0083080102 0.18223722
0.049348183 -0.0085780788 0.18242347
0.052180167 -0.0073873401 0.18247272
0.055086024 -0.0064168698 0.18422863
-0.065676898 -0.0018215268 0.18251257
-0.06339284 -0.0029388911 0.18240026
0.053485978 -0.002901213 0.1824391
0.055833396 -0.0018320995 0.18255587
-0.066565044 0.0027027519 0.18238355
-0.064225517 0.0016563835 0.18242842
0.054370113 0.0017054868 0.18271266
0.056653023 0.0026687514 0.18249391
-0.070002824 0.0074429619 0.1846046
-0.067263119 0.0075981556 0.18251286
-0.064872764 0.0061225337 0.18228015
0.05479499 0.0057594292 0.18299715
0.057606436 0.0076236487 0.18258162
-0.070077747 0.013572086 0.18100509
-0.067961313 0.012516454 0.18261723
0.058072157 0.012607343 0.18252413
0.060211111 0.013129328 0.18248494
-0.07023026 0.017396903 0.18237059
-0.068089515 0.017514184 0.18247597
0.058133516 0.0175837 0.18241893
0.06059457 0.017526619 0.18249819
-0.070172198 0.022053355 0.18237795
-0.068034686 0.0224523 0.18244964
0.058220107 0.022503082 0.18245505
0.060675524 0.02213493 0.18245073
-0.070052706 0.026493166 0.18229635
-0.067629598 0.027444387 0.18246697
0.054935198 0.029440416 0.18127167
0.057782408 0.027494879 0.18242204
0.060232271 0.0268375 0.18255101
-0.066876724 0.032383416 0.18248069
-0.06449113 0.033851199 0.1828312
0.05451246 0.033589933 0.18217142
0.057205122 0.03241149 0.18252687
0.060120706 0.030945141 0.18413012
-0.066139139 0.037225015 0.18247004
-0.06400542 0.038015176 0.18241043
0.054048631 0.037886273 0.18240289
0.056499679 0.03725224 0.18242469
-0.065548837 0.041578908 0.18235588
-0.06323041 0.042747702 0.18241763
0.053392865 0.042857692 0.18239056
0.055912342 0.04195565 0.18261237
-0.061823219 0.047354739 0.18243887
-0.059330471 0.048650805 0.18224816
0.049394131 0.048763197 0.18226139
0.052413039 0.047416303 0.18252303
0.055368695 0.045563649 0.18250559
-0.060851056 0.05154964 0.18273345
-0.058129031 0.052866913 0.18243626
-0.054894783 0.054520428 0.18081367
0.048705634 0.053034633 0.18249053
0.051176861 0.05190121 0.18247175
-0.056559227 0.056863077 0.18240005
-0.053628985 0.058242593 0.18242437
0.044459842 0.058919959 0.18240504
0.047225967 0.05739959 0.18250793
0.050323412 0.05550991 0.18227124
-0.055590477 0.060485244 0.18307096
-0.052179612 0.061938636 0.18245713
-0.048820801 0.063771196 0.18238026
0.039073814 0.064225636 0.18270434
0.04289813 0.062780254 0.18248646
0.045757208 0.061236601 0.18286839
-0.050629176 0.06547825 0.18267377
-0.047044042 0.066963524 0.18244465
-0.04333381 0.068537839 0.1823622
-0.039553504 0.069819413 0.18230179
0.03349926 0.068831556 0.18247966
0.037471469 0.067473546 0.18253189
0.041484602 0.066229247 0.18248075
-0.045478538 0.070595339 0.18290339
-0.042055491 0.071524672 0.18245824
-0.03781322 0.073049635 0.18241599
-0.033533271 0.074264303 0.18238555
0.02350072 0.074354202 0.18251182
0.027693231 0.07314238 0.1825117
0.031733543 0.071223035 0.18247032
0.037770238 0.071233176 0.18272065
-0.036499169 0.075838521 0.18256703
-0.032206926 0.077056319 0.1824367
-0.027640181 0.078187957 0.18246152
-0.022839237 0.079109207 0.18251173
-0.018296134 0.079526372 0.18236028
-0.01276544 0.079971246 0.18379574
0.0033475861 0.07992354 0.18304062
0.0081115896 0.07967069 0.18248548
0.012917461 0.079031929 0.18226269
0.017763335 0.078115664 0.18243606
0.022164855 0.076587759 0.18241891
0.025903691 0.075531594 0.18238725
0.064261198 0.078291647 0.18272112
0.067363441 0.078636341 0.18258135
0.070844948 0.078756772 0.18276411
-0.030644899 0.080106728 0.18260495
-0.026906051 0.080738381 0.18249926
-0.02218256 0.081288747 0.18250638
-0.017408958 0.081892043 0.18246251
-0.012613758 0.08234182 0.18240839
-0.0075602103 0.082638256 0.1823923
-0.0025600111 0.082738325 0.18242286
0.0025921222 0.082403228 0.18244237
0.0074523129 0.081841052 0.18236762
0.012353418 0.081121311 0.18244754
0.016096501 0.080587506 0.18258971
0.057670217 0.084224209 0.18253058
0.064506002 0.084680155 0.18329407
0.067875303 0.082451738 0.18244201
0.070184313 0.081761591 0.18229574
-0.010438074 0.085041627 0.18414961
-0.0076345722 0.085202895 0.18273206
-0.0031282818 0.085144132 0.18324505
0.0021550599 0.085292608 0.18245322
0.054322183 0.088737853 0.18304853
0.058209188 0.08766111 0.18258666
0.062377919 0.08797396 0.18252826
0.066747881 0.087544553 0.18258186
0.072761156 0.089011662 0.18234695
0.075758658 0.087450117 0.18195489
0.058484949 0.090899847 0.18277171
0.062849119 0.092451625 0.18246293
0.067537501 0.092726454 0.18240997
0.071794339 0.092278086 0.18236923
0.063127384 0.097640544 0.18245469
0.067361861 0.097148396 0.18243758
0.070845306 0.096127495 0.18267258
0.063201934 0.101116 0.18228772
0.065652192 0.10062768 0.18237121
-0.020729089 -0.045218214 0.18718417
-0.017230941 -0.045558628 0.18757574
-0.012332009 -0.045826845 0.1875505
-0.0076378128 -0.046031509 0.18755476
-0.0026850936 -0.045992583 0.18754715
0.0022109381 -0.04574525 0.18753232
0.0064277109 -0.045296408 0.1877166
-0.035253074 -0.040125567 0.18574324
-0.031819884 -0.040560059 0.18755871
-0.027138583 -0.041551575 0.18741648
-0.022489164 -0.042550452 0.18740655
-0.017613433 -0.043278128 0.18745159
-0.01267215 -0.043615963 0.187424
-0.0075870734 -0.043706018 0.18741754
-0.0024884667 -0.043618672 0.18747865
0.0026121337 -0.04324764 0.18741681
0.0076718312 -0.042633448 0.18748979
0.012498686 -0.041892447 0.18742764
0.017232632 -0.041178115 0.18751398
0.021250179 -0.04046227 0.18703432
-0.040747892 -0.03563701 0.1875952
-0.037070837 -0.036731068 0.18742384
-0.03270252 -0.038090147 0.1873569
-0.028082876 -0.039192393 0.18741174
-0.024325598 -0.039951406 0.1873589
0.0090653254 -0.039833341 0.18728986
0.013129132 -0.039313897 0.18738768
0.017709484 -0.038458794 0.18735294
0.022469692 -0.037551116 0.1875003
0.026997823 -0.036484085 0.18744093
0.030690979 -0.035473768 0.18754916
-0.04623808 -0.031042663 0.18754722
-0.042521596 -0.032318987 0.18741648
-0.038362894 -0.033864785 0.18744875
-0.034941174 -0.034885153 0.18607825
0.02407749 -0.034555625 0.18749602
0.027786106 -0.033488944 0.18744098
0.032271367 -0.032249574 0.18750289
0.035777956 -0.030837173 0.18745959
-0.051413801 -0.0264431 0.18756701
-0.047796596 -0.02764173 0.18736887
-0.044246852 -0.028926961 0.18733475
0.033786085 -0.028961448 0.18754733
0.037481729 -0.027442265 0.18740879
0.041033477 -0.025887229 0.18759611
-0.055896163 -0.021191843 0.18752897
-0.052708887 -0.022652043 0.18736352
-0.049186643 -0.024005946 0.18721706
0.039092831 -0.023793032 0.18768872
0.042419784 -0.022341272 0.18738241
0.045611959 -0.020623639 0.18734218
-0.060312591 -0.015433273 0.18700451
-0.057289891 -0.017298736 0.18734479
-0.054041073 -0.018682133 0.18761133
0.043928921 -0.018390141 0.18747433
0.046831198 -0.017139705 0.18736693
0.050181121 -0.015028471 0.18628503
-0.061164275 -0.012017336 0.18747228
-0.058523972 -0.013059367 0.18748035
0.048429009 -0.013054402 0.1875128
0.051096633 -0.011897311 0.18737288
-0.065156572 -0.0066052675 0.18758166
-0.062506638 -0.007532476 0.18741894
-0.059633736 -0.0089826295 0.18725471
0.049437478 -0.0089208512 0.18706506
0.052221738 -0.00737517 0.18739086
0.055405416 -0.0053613354 0.18845844
-0.065712057 -0.0019352749 0.18744187
-0.063567579 -0.0029775561 0.18733057
0.053545162 -0.0027466149 0.18742231
0.056009952 -0.0019541527 0.18743113
-0.066492289 0.0027100411 0.1873772
-0.064250305 0.001810091 0.18734148
0.054322477 0.0019534433 0.18756276
0.056740507 0.0027201236 0.18735541
-0.067290314 0.0075644618 0.18744488
-0.064851113 0.0060062911 0.18729529
0.054659769 0.00619921 0.18803735
0.057487536 0.0075889067 0.1873751
0.060288846 0.008905232 0.18814075
-0.070064232 0.014251599 0.18902907
-0.067871772 0.012598578 0.18752453
0.057964392 0.012460922 0.18741326
0.060407754 0.012903831 0.18733236
-0.070258401 0.017280592 0.18770769
-0.06816297 0.017552217 0.1874315
0.058328506 0.017554566 0.18738106
0.060694013 0.017629949 0.18720201
-0.070198469 0.022301039 0.18772766
-0.068065166 0.022518691 0.18746057
0.058362022 0.022518611 0.18740369
0.060644254 0.022070136 0.18759586
-0.070100546 0.027241999 0.18760997
-0.06771455 0.027407885 0.18740273
0.057958707 0.02745579 0.18737981
0.06027434 0.026910815 0.18712574
-0.06706135 0.032342196 0.18742672
-0.064664416 0.033423554 0.18721068
0.054475356 0.034218546 0.18680443
0.057266325 0.03238292 0.1873785
0.060015604 0.030048592 0.18870406
-0.066161573 0.037214704 0.18744519
-0.064073339 0.037813701 0.18720073
0.054260485 0.03797124 0.18726709
0.056585521 0.037286747 0.18740667
-0.06567625 0.041646354 0.18737939
-0.063242212 0.042811003 0.18745331
0.05358867 0.042819891 0.18747759
0.055940848 0.041884318 0.18748812
-0.065059192 0.045447636 0.18618105
-0.061877895 0.04740702 0.18741104
-0.059333138 0.048650537 0.18728884
0.049620852 0.048822269 0.18725431
0.052386034 0.047512468 0.18750542
0.055235669 0.045611478 0.18752338
-0.061078481 0.051439788 0.18745363
-0.058193158 0.052974533 0.18741554
-0.054994918 0.054946773 0.18831423
0.048783012 0.053128127 0.1875324
0.051245634 0.051959172 0.1875124
-0.05657991 0.056870587 0.1874534
-0.053658161 0.058415201 0.18729368
0.04458658 0.059136301 0.18784079
0.04728904 0.057520878 0.18741071
0.050548844 0.056174163 0.18721902
-0.055519167 0.060693458 0.18690702
-0.052208766 0.062120549 0.18747312
-0.048646204 0.063743249 0.18733092
0.039223578 0.064386994 0.1874397
0.042981364 0.062749073 0.18734992
0.045954954 0.061369594 0.18752038
-0.050722282 0.065498002 0.18769896
-0.047058363 0.066976085 0.18745835
-0.043479867 0.0684916 0.1873249
0.033396825 0.06891723 0.18726495
0.037552156 0.067581534 0.18749793
0.041644949 0.066021331 0.1872998
-0.045585144 0.07059937 0.18781155
-0.042020813 0.071678907 0.18735425
-0.037848622 0.073060043 0.18737991
-0.033631563 0.074266769 0.18742099
0.023581738 0.074305251 0.18748121
0.027741592 0.073291503 0.18739584
0.031865124 0.071234047 0.1873621
0.037773784 0.071331814 0.18754615
0.064460374 0.074873798 0.18881728
0.065376773 0.074736506 0.18881643
-0.036569513 0.075966679 0.18743698
-0.03225486 0.077071749 0.18743587
-0.027638486 0.078241676 0.1874022
-0.022758381 0.079056799 0.18746337
-0.018263005 0.079556428 0.1873218
-0.01395445 0.079857782 0.18636782
0.0040548132 0.079874314 0.18749161
0.0079417583 0.079623878 0.1873952
0.01292978 0.079159647 0.18744817
0.017718777 0.078215204 0.18738545
0.022215273 0.07668037 0.18737334
0.025989246 0.075627163 0.18730088
0.06407439 0.077824041 0.18765391
0.066654176 0.078440927 0.18740204
0.071078308 0.078748263 0.18524683
-0.030479234 0.080309018 0.18782625
-0.026831586 0.080775589 0.18746969
-0.022322766 0.081225619 0.18743187
-0.017414855 0.081904575 0.18745802
-0.01261626 0.082338683 0.18742964
-0.0076184957 0.082796052 0.18738668
-0.0024990253 0.08275564 0.18742643
0.0025600928 0.082550585 0.18738207
0.0074022873 0.081904724 0.18738757
0.012218889 0.081136703 0.18736842
0.016189329 0.080529064 0.18751161
0.057652444 0.083935179 0.18749687
0.064187504 0.083979517 0.1875585
0.06763079 0.082422867 0.18735845
0.070279181 0.08121857 0.18705536
-0.010639505 0.085157178 0.18653798
-0.0072246115 0.085301116 0.18759809
-0.0032812525 0.085229591 0.1877538
0.0015662848 0.085207172 0.18748824
0.053978506 0.089254476 0.18744487
0.058295999 0.08767046 0.18735389
0.06250637 0.08794184 0.18746451
0.066714592 0.087718517 0.18755856
0.07291016 0.088940725 0.18754408
0.075621836 0.087816179 0.1873872
0.053939093 0.090271942 0.18756334
0.057873208 0.090586036 0.18773314
0.062706582 0.092374727 0.18749541
0.067582712 0.09270791 0.18740681
0.071761675 0.092305712 0.18739188
0.059695274 0.099821053 0.18871564
0.063043348 0.097513668 0.18733871
0.067240402 0.097211622 0.1873903
0.070770942 0.096214771 0.18727742
0.059554622 0.10018568 0.18700415
0.063300394 0.10099427 0.18737225
0.065656118 0.10041497 0.18709089
-0.021050636 -0.045168731 0.19213209
-0.017093012 -0.045495883 0.19239777
-0.012272019 -0.045870095 0.19255428
-0.0075489101 -0.046053402 0.19252521
-0.002831968 -0.045960985 0.19248265
0.0020665794 -0.045641046 0.19237031
0.0065019894 -0.045304067 0.19286415
-0.031527862 -0.040764112 0.19245419
-0.027094385 -0.041545797 0.19244321
-0.022532942 -0.042469095 0.19240393
-0.017681045 -0.043184936 0.19244818
-0.012681644 -0.043645412 0.19237261
-0.0076402617 -0.043793142 0.1923672
-0.0024534746 -0.043698199 0.19238867
0.0026302747 -0.043393414 0.19238003
0.0076447581 -0.042669106 0.19244984
0.012497484 -0.041849524 0.19249991
0.017250124 -0.041079443 0.19260499
0.021047074 -0.040405743 0.19292334
-0.040880557 -0.035647288 0.19253324
-0.037029598 -0.036614455 0.19247064
-0.032729603 -0.038100019 0.19247779
-0.02799895 -0.039207168 0.19245969
-0.024061782 -0.039737567 0.19216177
0.0093049249 -0.039879005 0.19350135
0.01321657 -0.039320093 0.1924164
0.017821934 -0.038508702 0.19243312
0.022415211 -0.037491053 0.19246565
0.02696907 -0.03638779 0.19251394
0.030943979 -0.035675608 0.19289646
-0.046272721 -0.031196153 0.1924223
-0.042483967 -0.032424103 0.1924336
-0.038382173 -0.0336808 0.19260384
0.024150793 -0.034541044 0.19255051
0.027930349 -0.033379491 0.19243072
0.032157622 -0.032115452 0.19246885
0.035801485 -0.031014008 0.1926323
-0.051661398 -0.026350329 0.19240743
-0.047730416 -0.027743183 0.19239961
-0.043792963 -0.029255593 0.19222558
0.033531971 -0.028910233 0.1924392
0.037350494 -0.027384391 0.19243488
0.041016061 -0.026123798 0.19239721
-0.055968959 -0.021473115 0.19265099
-0.053004317 -0.022858223 0.19228107
-0.049217351 -0.024140056 0.19182746
0.038880471 -0.023738401 0.19257896
0.042341825 -0.022322895 0.19247267
0.045645181 -0.0206553 0.19230407
-0.060376078 -0.015923979 0.19253004
-0.057531789 -0.017474085 0.19234186
-0.053956509 -0.018662293 0.19159521
0.04378185 -0.018334229 0.19258152
0.046817072 -0.017159371 0.19241051
-0.061112903 -0.01216838 0.19249235
-0.058487386 -0.01292331 0.19234763
0.044989128 -0.01431675 0.19449881
0.048368327 -0.012920947 0.19252361
0.051119771 -0.011917096 0.19244552
-0.065320298 -0.0061638299 0.19150724
-0.062383335 -0.0074841245 0.19248708
-0.059379987 -0.0091237668 0.19273955
0.049548492 -0.0090789245 0.19272728
0.052318767 -0.0074364147 0.19239859
0.055276692 -0.0053301081 0.19242434
-0.065682791 -0.0017457214 0.19242413
-0.063621312 -0.0029804739 0.19246688
0.053616311 -0.0027729536 0.19247162
0.055997401 -0.0019759054 0.19240922
-0.066482551 0.002684931 0.19243644
-0.064348757 0.0019206638 0.19248396
0.054318737 0.0019476111 0.19244681
0.056715406 0.0027861604 0.19246367
-0.067424752 0.0076180743 0.19242276
0.054804072 0.0064855814 0.19246227
0.057465859 0.0075511164 0.19238535
0.060265388 0.0093284482 0.19296424
-0.070200585 0.012865441 0.19254161
-0.068024717 0.012604305 0.19238769
0.058115087 0.012535063 0.19235513
0.060512923 0.012912261 0.19242926
-0.070393734 0.017374644 0.19261205
-0.068057351 0.017594878 0.19244704
0.058306377 0.017481027 0.19240941
0.06056881 0.017748972 0.19242769
-0.070200384 0.022488924 0.1923223
-0.067992389 0.022437992 0.19244039
0.058480859 0.022468947 0.19245565
0.060434829 0.022402277 0.19237445
-0.070149451 0.027095322 0.19255425
-0.067679018 0.027456556 0.19244596
0.058032878 0.027489293 0.1924779
0.060417045 0.02693977 0.19262233
-0.067128278 0.032301549 0.19243701
-0.064652391 0.033262223 0.19226474
0.054662336 0.034013011 0.19232471
0.057414468 0.03244596 0.19248055
0.060222745 0.030720092 0.1947833
-0.066173613 0.037219912 0.19240654
-0.063934632 0.037836101 0.19244359
0.054376774 0.03797286 0.19222961
0.056600228 0.037229527 0.19246444
-0.065574467 0.041898966 0.19258778
-0.063149184 0.042773381 0.19244334
0.053487547 0.042903334 0.19245346
0.055904545 0.041797321 0.19245447
-0.061932918 0.047450401 0.19243075
-0.059279215 0.048754722 0.19273938
0.049527057 0.048416041 0.19275621
0.052401483 0.047452971 0.19244614
0.055175476 0.045777023 0.19226237
-0.061085612 0.051647592 0.19247937
-0.058143709 0.052884929 0.19247147
-0.054904185 0.054683916 0.19261867
0.048629642 0.052996811 0.1925066
0.051321723 0.052086204 0.1924731
-0.056759853 0.056978904 0.19251274
-0.053897336 0.05831106 0.19240361
0.044597138 0.059210312 0.19208671
0.047272868 0.057525937 0.19248167
0.050505038 0.055977311 0.1929483
-0.055753991 0.060546342 0.19347481
-0.0522842 0.062116962 0.19248936
-0.048791129 0.06354107 0.19246437
0.039643783 0.064273797 0.19149466
0.043156311 0.062918849 0.19242799
0.046225037 0.06121264 0.19267944
-0.050591514 0.06552051 0.19237803
-0.047120966 0.067006119 0.19249846
-0.04340753 0.068513304 0.19241652
0.033732858 0.069187187 0.19249091
0.037682649 0.067753866 0.19243379
0.041686557 0.066295564 0.19255258
-0.045474891 0.070749491 0.19246767
-0.041977495 0.071586132 0.19245093
-0.037830472 0.073111914 0.19243202
-0.033647902 0.074337155 0.19242294
0.023892535 0.074310258 0.19251971
0.027761614 0.073238514 0.19238864
0.031842127 0.071247138 0.19240606
0.037849329 0.071390539 0.19245052
0.062826641 0.074447066 0.19325024
0.065234818 0.0746736 0.19086844
-0.036556859 0.076093391 0.19250916
-0.032259583 0.077072613 0.19240583
-0.02761957 0.078257561 0.19243412
-0.022812737 0.079175331 0.19238481
-0.017777085 0.079732731 0.19212097
-0.014005811 0.079958595 0.19235595
0.0044667991 0.079863198 0.19226985
0.0082240608 0.079573959 0.19254245
0.01297754 0.079120837 0.19248332
0.017743437 0.078241117 0.19238056
0.022212915 0.076622978 0.19243872
0.026195006 0.075550966 0.19264187
0.06426052 0.078468516 0.1920779
0.066670552 0.078520648 0.19215994
-0.030446712 0.080142021 0.19333485
-0.026706206 0.080752641 0.1924639
-0.022195036 0.081270956 0.19245858
-0.017442387 0.082055718 0.19245568
-0.012635758 0.082559094 0.19239911
-0.0075876913 0.082789786 0.19236234
-0.0024758179 0.082938485 0.19245571
0.0025708948 0.082625195 0.1924282
0.0074398061 0.081899397 0.19241622
0.012239954 0.081111275 0.19243217
0.016292484 0.080321766 0.19218631
0.057175234 0.083810084 0.19254106
0.06402535 0.083107419 0.19276763
0.067372091 0.082438737 0.19234379
0.070136532 0.081813097 0.19343838
0.076343589 0.084972411 0.19462357
-0.016140761 0.085002869 0.19194952
-0.010502218 0.08514291 0.19433589
-0.0070720077 0.08551579 0.19252227
-0.0031788908 0.08528465 0.19196473
0.0017801435 0.085288852 0.19281298
0.05356773 0.089151725 0.19168271
0.058159646 0.087704629 0.19246903
0.062505111 0.087579861 0.19244736
0.066555262 0.08799056 0.19226247
0.072934859 0.088683419 0.19254847
0.075698286 0.086932704 0.19279027
0.054385845 0.090189777 0.19070807
0.058691282 0.091197476 0.19267239
0.062710591 0.09262798 0.19241595
0.067657374 0.092819758 0.19248615
0.071643345 0.092095241 0.19231726
0.075249687 0.090035394 0.19041426
0.05944258 0.099125721 0.19253631
0.062730826 0.097517669 0.19250999
0.067138791 0.097159371 0.19240862
0.070333302 0.096148431 0.19236827
0.059726804 0.10029291 0.19262367
0.062989399 0.10095187 0.19245346
0.065386675 0.10032908 0.19167696
-0.020585526 -0.045291446 0.19787432
-0.017285807 -0.04546373 0.19739492
-0.01215492 -0.045920528 0.19765423
-0.0075196265 -0.046043769 0.19757637
-0.0026694261 -0.045976706 0.19753313
0.0021605024 -0.045553319 0.19790971
0.0066179456 -0.04524909 0.19799006
-0.031367034 -0.040657617 0.19743191
-0.027181879 -0.041629937 0.19751988
-0.022512583 -0.042497344 0.19745921
-0.017676573 -0.043162506 0.1974818
-0.012694225 -0.043636706 0.19742818
-0.0076615796 -0.043918479 0.19739468
-0.0024985054 -0.043829121 0.1974272
0.0026339288 -0.043385841 0.19744891
0.0076606125 -0.042656872 0.19748598
0.01241704 -0.04199174 0.19752112
0.01715347 -0.041090917 0.19758394
0.02087348 -0.04050941 0.19764772
-0.04142369 -0.035595227 0.19785896
-0.037031718 -0.03654518 0.19751509
-0.032673489 -0.03789771 0.19749893
-0.027957465 -0.039131369 0.19750158
-0.023925103 -0.039832808 0.19716427
0.0099236704 -0.039625764 0.19978578
0.013046553 -0.039307885 0.1974896
0.017829362 -0.038447186 0.19739588
0.022480763 -0.037411552 0.19751041
0.02702198 -0.036450326 0.1975107
0.031131079 -0.035783987 0.19787306
-0.051030047 -0.030553671 0.19925207
-0.046825889 -0.031526498 0.19773133
-0.042532176 -0.032677144 0.19744597
-0.038117848 -0.033767037 0.19743921
-0.034569461 -0.034842577 0.19808643
0.024028612 -0.034449413 0.19713204
0.027866533 -0.033392344 0.19742294
0.032213949 -0.032187764 0.19748564
0.035959139 -0.031112459 0.19767226
-0.056100547 -0.026358953 0.1992624
-0.052324545 -0.027074877 0.19784956
-0.048162598 -0.028384211 0.19705254
-0.044222992 -0.029378224 0.19658273
0.033563081 -0.028836206 0.19754232
0.037412908 -0.027400704 0.19753461
0.041041009 -0.02596256 0.19741699
-0.056925364 -0.022081448 0.19779617
-0.053005792 -0.023286527 0.19748618
-0.049425222 -0.023789411 0.19867089
0.038878825 -0.023745343 0.19745225
0.042365823 -0.022307195 0.19755252
0.045443181 -0.020676892 0.19720469
-0.060695022 -0.016648928 0.19789916
-0.058069825 -0.017631633 0.19741951
-0.054866929 -0.019497115 0.1959295
0.043651875 -0.018240387 0.19738714
0.046876576 -0.01706527 0.19751163
-0.061209407 -0.012327261 0.19756626
-0.058941271 -0.012741262 0.19744721
0.044771224 -0.014535231 0.19691259
0.048306428 -0.012997531 0.19740441
0.05109939 -0.011856724 0.19750509
-0.065146662 -0.0059828884 0.19743058
-0.062296838 -0.0074201087 0.19746655
-0.059413157 -0.008627587 0.19727571
0.049283296 -0.0088790543 0.19773214
0.052276757 -0.0074868668 0.19747093
0.055278301 -0.0055337935 0.19756438
-0.065697514 -0.001716061 0.19749422
-0.063393869 -0.0028744338 0.19753426
0.053501312 -0.0028388607 0.19747362
0.056124095 -0.0018875998 0.19752285
-0.066432565 0.0026730241 0.19744983
-0.064235292 0.0019550042 0.19760883
0.054368112 0.0019325922 0.19751884
0.056849372 0.0026680608 0.1975071
-0.067369722 0.0076388642 0.1975116
-0.064728208 0.0059184828 0.19839849
0.054728322 0.0060283835 0.19791862
0.057532396 0.0075558005 0.19746597
0.060229395 0.0093540139 0.19781768
-0.070299543 0.013290336 0.1973149
-0.068012059 0.01252851 0.19754967
0.058127817 0.012551405 0.19742583
0.060428336 0.012459319 0.19738172
-0.070323557 0.017032333 0.1971525
-0.068223044 0.01752352 0.19753541
0.058309503 0.017447544 0.1975273
0.060590666 0.017511174 0.19747074
-0.070209078 0.022881754 0.1972196
-0.068115354 0.022493044 0.19748192
0.05841073 0.022499003 0.19744788
0.060534876 0.022631578 0.19760604
-0.070336364 0.025325075 0.19769429
-0.067777149 0.027413487 0.19743913
0.058126982 0.027478179 0.19747993
0.060319774 0.027414488 0.19749247
-0.070040524 0.031026274 0.19728085
-0.067164153 0.03239793 0.19746383
-0.064586602 0.033658534 0.19735548
0.0547956 0.033802912 0.19736329
0.057485424 0.032424878 0.19752979
0.060228046 0.031028362 0.19739547
-0.066155732 0.037200257 0.19747519
-0.06395191 0.037942845 0.19734816
0.054312576 0.038130525 0.19757937
0.056813784 0.037196506 0.19748101
-0.06572146 0.042016622 0.19746135
-0.063142546 0.042776011 0.19748515
0.053458374 0.042812083 0.19751185
0.056010161 0.04190414 0.19751813
-0.065373935 0.04545901 0.19775718
-0.061956454 0.04735072 0.1974646
-0.059167791 0.048720978 0.19761676
0.049370963 0.048549499 0.19753231
0.05232542 0.047439545 0.19752727
0.055347301 0.045536917 0.19690871
-0.060948852 0.051788196 0.19742934
-0.058108427 0.052822415 0.19750763
-0.054641943 0.054732658 0.19771568
0.048666887 0.053057298 0.19751339
0.051271427 0.052063797 0.19723235
-0.060021445 0.055635307 0.19868943
-0.056665663 0.056942828 0.19743712
-0.053577978 0.058202259 0.19747427
0.044732492 0.058859412 0.19720685
0.047341052 0.057452951 0.19746788
0.05044793 0.055742584 0.19836387
-0.055504493 0.060598321 0.19731115
-0.052263774 0.062160823 0.19758002
-0.048708733 0.063480012 0.19756913
0.043498531 0.063066699 0.19733386
0.046284508 0.061668694 0.19754228
-0.050698228 0.06541305 0.19765314
-0.047240678 0.067008212 0.19745654
-0.043350182 0.068529218 0.19743842
-0.039566744 0.069818355 0.19722854
0.033861239 0.069162659 0.19725046
0.037424542 0.067973152 0.19737329
0.041739494 0.06644471 0.19723627
-0.045589816 0.070482865 0.19750752
-0.042037293 0.07152044 0.19746161
-0.03785421 0.073129691 0.19747752
-0.03342592 0.074312769 0.19765033
0.02350118 0.07426165 0.19748907
0.027710391 0.073249437 0.19750313
0.031930752 0.071382873 0.19747923
0.03656223 0.070449598 0.19711041
0.059865378 0.073826902 0.19885767
0.061979741 0.074220106 0.19825163
-0.03641241 0.075737178 0.19741404
-0.032201655 0.077060878 0.19748613
-0.027718766 0.078138568 0.19749659
-0.022806922 0.0791099 0.1975711
-0.018009013 0.079647876 0.19735913
-0.014398181 0.079871334 0.1972187
0.0045012655 0.079762906 0.19696352
0.0081636505 0.079552017 0.19764207
0.01287919 0.078995928 0.19762062
0.017717887 0.078095391 0.19757101
0.022178711 0.076678149 0.19752295
0.026112011 0.075641371 0.1974784
0.063797846 0.077714883 0.19776553
0.0664884 0.078457423 0.19745423
-0.026750639 0.080650054 0.19748035
-0.022275502 0.081309974 0.1975165
-0.017553048 0.08204037 0.19745208
-0.012560884 0.082501791 0.19748223
-0.0075699445 0.08286716 0.19744153
-0.0024811304 0.082874238 0.19750948
0.0025659315 0.082516745 0.1974785
0.0074180122 0.081800148 0.19745737
0.012251915 0.08115799 0.19747591
0.01613619 0.08036232 0.19768499
0.054866478 0.08215645 0.19721158
0.056958303 0.083848871 0.19736372
0.063267298 0.083084665 0.19787361
0.067482218 0.082316771 0.19757031
0.07061021 0.082716532 0.19780248
0.075821616 0.084931284 0.19887269
-0.010502194 0.085238509 0.19757763
-0.0071283923 0.085437618 0.19755599
-0.0028080191 0.085280105 0.19786097
0.0014497018 0.085409507 0.19821618
0.053933214 0.087979451 0.198741
0.057911593 0.087442212 0.19754408
0.062593699 0.08743263 0.19748737
0.066452011 0.088414155 0.19745928
0.072630748 0.088253498 0.19760108
0.075919591 0.086503021 0.19709289
0.059061091 0.091557398 0.19759449
0.062609464 0.092737935 0.19764905
0.067555197 0.092749454 0.19757336
0.071328454 0.091965593 0.19733621
0.059599686 0.09735135 0.19793603
0.062662907 0.097482964 0.19746295
0.06707824 0.096826352 0.19728456
0.070299082 0.095627367 0.19711612
0.059956923 0.10022036 0.19676998
0.062436089 0.10085718 0.19735886
0.065160275 0.10050578 0.19659624
-0.020674778 -0.04534338 0.20248179
-0.017253106 -0.045452818 0.20247547
-0.012214798 -0.045764361 0.20238441
-0.0074283397 -0.045982197 0.20238778
-0.0025624242 -0.04592815 0.2023612
0.002064981 -0.045553111 0.20252286
0.0064795315 -0.045205418 0.202015
-0.031048059 -0.040620819 0.20245811
-0.027120771 -0.04155156 0.20256853
-0.022467677 -0.042473402 0.2025184
-0.017661437 -0.043253254 0.20257787
-0.012736034 -0.043777924 0.20262976
-0.0076015433 -0.043982103 0.20260297
-0.0024148857 -0.043801975 0.20259447
0.0027189816 -0.04330064 0.20260103
0.0076286253 -0.042536322 0.20255725
0.012456139 -0.041872296 0.20253974
0.017095519 -0.040934037 0.20246865
0.020932147 -0.040483564 0.20269732
-0.060759354 -0.035852209 0.20425092
-0.057430871 -0.036128432 0.20434907
-0.052530881 -0.035756197 0.20446968
-0.046815984 -0.035687476 0.20325671
-0.042220436 -0.03587598 0.20278549
-0.037085697 -0.036560051 0.20259632
-0.032587267 -0.037863575 0.20255531
-0.028057074 -0.039129987 0.20255539
-0.024310363 -0.039751038 0.20327599
0.0090115089 -0.039668247 0.20309438
0.013048992 -0.039197821 0.20254168
0.017828489 -0.038414221 0.20255242
0.022412697 -0.037360556 0.20260645
0.026931243 -0.036365777 0.20247912
0.031009424 -0.035477735 0.20221621
-0.061555445 -0.032030791 0.2039911
-0.057390299 -0.032133307 0.20344311
-0.052577589 -0.031876855 0.20312485
-0.04760351 -0.032132927 0.20274396
-0.042627707 -0.033008929 0.2024769
-0.038076907 -0.033961147 0.20237814
-0.034315541 -0.034618359 0.20296088
0.023773586 -0.03453042 0.202626
0.027845385 -0.033443164 0.20260118
0.032256126 -0.032169908 0.20252015
0.035976537 -0.030996023 0.20238827
-0.061644394 -0.027438251 0.20358711
-0.057459202 -0.027357724 0.20278655
-0.052658927 -0.027540501 0.20249572
-0.04830388 -0.02778485 0.20284767
-0.044605743 -0.029926242 0.20035775
0.033544198 -0.028805668 0.20259446
0.037419759 -0.027386192 0.20253181
0.040858697 -0.026087506 0.20265377
-0.061111875 -0.022628402 0.20337798
-0.057811029 -0.022650713 0.20250738
-0.053060144 -0.023626449 0.20245254
-0.049045451 -0.023980398 0.20196986
0.038962699 -0.023751153 0.20255309
0.042395514 -0.022349453 0.20258637
0.045666773 -0.020516692 0.20259984
-0.061196074 -0.017438471 0.20283026
-0.058865435 -0.017910572 0.2022164
0.043784428 -0.018229207 0.20239314
0.04700752 -0.017106723 0.20264725
0.05037719 -0.015528123 0.20256765
-0.061387967 -0.012542015 0.20265669
-0.059345201 -0.012683564 0.20195147
0.044746276 -0.014706177 0.20125347
0.048304606 -0.012972902 0.2024795
0.051163614 -0.011815346 0.20263086
-0.065189533 -0.0057944967 0.20334317
-0.062361579 -0.0075410921 0.20251688
-0.05975144 -0.008918765 0.20237207
0.049324952 -0.0088855261 0.20254569
0.052273463 -0.0074483622 0.20254877
0.055502485 -0.0056633395 0.20293711
-0.065589875 -0.0016976316 0.20264073
-0.063402295 -0.0028609161 0.2024927
0.053529087 -0.0028606923 0.20250118
0.056110349 -0.0019728346 0.2026189
-0.066357851 0.0027122947 0.20259681
-0.064126633 0.0020326837 0.20263624
0.054140709 0.0016170378 0.20226915
0.056793373 0.0027260873 0.20254801
-0.067205422 0.0076442882 0.20249662
-0.064715043 0.0064483322 0.20242161
0.054768156 0.0056519601 0.20205884
0.05762396 0.0075514736 0.20254938
0.060205724 0.009167416 0.20252578
-0.070445225 0.013433635 0.20180711
-0.067846008 0.01254759 0.20255344
0.058224265 0.012577347 0.20253284
0.060414817 0.012469853 0.20253813
-0.070373274 0.017825084 0.20232019
-0.068042263 0.017564245 0.20252074
0.058564115 0.017503271 0.20247763
0.06060154 0.01773596 0.20223422
-0.070204623 0.022151904 0.20252858
-0.068066828 0.022420079 0.20257694
0.058474645 0.022511294 0.20253907
0.060468838 0.022463597 0.20248285
-0.070216745 0.025723329 0.2026327
-0.067774571 0.027458174 0.20253088
0.058190681 0.02753789 0.20255269
0.060421966 0.027075211 0.20257211
-0.067171268 0.032385074 0.20252414
-0.064738996 0.033361305 0.20201336
0.054795016 0.0341709 0.20174648
0.057699297 0.03247885 0.20250896
0.060425408 0.031613417 0.20270786
-0.066287339 0.03731164 0.20260026
-0.064071029 0.038044792 0.20242842
0.054252025 0.038242567 0.20246397
0.056954253 0.037296098 0.20258453
-0.065923475 0.041971225 0.20266674
-0.063314214 0.042876508 0.20246372
0.05344278 0.042950593 0.20245394
0.056119096 0.041960873 0.20258392
-0.065077558 0.045551803 0.20262845
-0.061967432 0.047400296 0.20256983
-0.059202895 0.048595604 0.20229022
0.049385887 0.048572313 0.20234893
0.052466854 0.047391873 0.20252976
0.05550307 0.045967501 0.20332183
-0.060878508 0.052016165 0.20242389
-0.058025371 0.052859034 0.20256367
-0.054352265 0.054760881 0.20289642
0.048645083 0.052817207 0.20251231
0.051273715 0.052236639 0.20256451
-0.060236312 0.055450715 0.20430908
-0.056569878 0.056986958 0.202444
-0.053612713 0.058158886 0.20249517
0.047811154 0.057493638 0.202463
0.050358173 0.056079354 0.20263074
-0.055607602 0.060540501 0.20227617
-0.052233949 0.062104411 0.20252392
-0.04849162 0.063510992 0.20250851
-0.044964712 0.064808503 0.20396724
0.043857679 0.063595191 0.20209168
0.04640064 0.061935883 0.2026713
-0.050826617 0.065546766 0.20255265
-0.047236603 0.067003332 0.20256382
-0.043299615 0.068328828 0.20265225
-0.039416179 0.069579296 0.20440608
0.034071479 0.069454931 0.20205705
0.037274852 0.068381339 0.20242395
0.042334326 0.066006981 0.20157717
0.045458037 0.065495543 0.20338386
-0.045920402 0.070613399 0.20315701
-0.041960269 0.071518324 0.20259191
-0.037743762 0.072999559 0.2025304
-0.033402853 0.074058354 0.20257567
0.023795865 0.074320242 0.20277901
0.027793676 0.073215522 0.20252812
0.032115053 0.071556538 0.20265557
0.035703678 0.070467807 0.20287657
0.059781615 0.074061483 0.20004828
0.062156696 0.074295476 0.20138071
0.066453226 0.074937023 0.20215872
-0.036460854 0.075997926 0.20274805
-0.03225198 0.077151738 0.20254163
-0.027606837 0.078102998 0.2025497
-0.022727298 0.078963481 0.20260555
-0.017914565 0.079447083 0.20258218
-0.013726196 0.079823978 0.2030554
0.0044672973 0.079897672 0.20285195
0.008140319 0.079408959 0.20252222
0.012802436 0.078882597 0.20245516
0.01771247 0.078071527 0.20251438
0.022215242 0.07665012 0.2025474
0.026213856 0.075526342 0.20261784
0.063645296 0.078299515 0.20253453
0.066481553 0.076908022 0.20249091
-0.030252064 0.080013968 0.20125867
-0.026846331 0.080624543 0.20274809
-0.022203894 0.081537284 0.20268889
-0.017482819 0.082066096 0.2025234
-0.012590633 0.082597993 0.20259391
-0.0076292697 0.082901701 0.20258106
-0.0024694763 0.0829399 0.20259294
0.002522852 0.082581326 0.2025668
0.0073983031 0.082032882 0.20260896
0.012326906 0.081156112 0.20261112
0.016262092 0.080422774 0.20272298
0.054508798 0.083424367 0.20422801
0.057456035 0.083791032 0.20300141
0.062810518 0.083166286 0.20280781
0.066528648 0.082145669 0.20220661
0.074110672 0.084542103 0.20334446
0.075508729 0.084390737 0.20238757
-0.010735531 0.085439518 0.20240608
-0.0075740763 0.08533714 0.2024838
-0.0019571739 0.085574716 0.20247012
0.0021306011 0.085433684 0.2025882
0.0050403532 0.085045367 0.20112588
0.053301908 0.086429119 0.20288658
0.05783876 0.087079331 0.20247784
0.062630095 0.087300964 0.20240544
0.067649685 0.088413082 0.20287065
0.071920089 0.087572642 0.20243888
0.075396128 0.085687846 0.20152783
0.05909403 0.092620835 0.20286053
0.062608838 0.092871949 0.20273645
0.067317136 0.092530273 0.20255412
0.07082805 0.09149956 0.2018542
0.058975387 0.097133175 0.20309907
0.062414061 0.097291067 0.20247366
0.066555738 0.096463092 0.20219375
0.059716858 0.10049093 0.20204175
0.061538976 0.10061216 0.2018515
-0.020805165 -0.045340911 0.20780711
-0.017131019 -0.045650549 0.20780966
-0.012464451 -0.045907978 0.20774004
-0.00759415 -0.045993995 0.20767844
-0.0025806618 -0.045916699 0.20751067
0.0019638266 -0.045736287 0.2076059
0.0069400989 -0.045186531 0.20787063
0.011961805 -0.045030326 0.2099199
-0.056605462 -0.040493716 0.20846467
-0.052880302 -0.040642075 0.20912652
-0.049209084 -0.040381934 0.20937711
-0.031053312 -0.040710445 0.20761931
-0.02719274 -0.041483779 0.20754555
-0.022412911 -0.042400114 0.20757106
-0.017657807 -0.042992014 0.20761204
-0.0127735 -0.043538883 0.20759182
-0.0075646555 -0.043805648 0.20764133
-0.0024270492 -0.043641165 0.20765427
0.002579415 -0.043153856 0.20762417
0.0075754602 -0.042536475 0.20760475
0.012453727 -0.041930821 0.20765164
0.01711417 -0.041196384 0.20772476
0.021314099 -0.040428966 0.20767771
-0.065098912 -0.035300374 0.20934203
-0.061563063 -0.036526289 0.20834215
-0.057402063 -0.037242822 0.20782524
-0.052617028 -0.037100982 0.20791706
-0.047854178 -0.036692083 0.20804626
-0.042500161 -0.036441065 0.20774205
-0.037293244 -0.036661316 0.20762785
