# .PCD v0.7 - Point Cloud Data file format
VERSION 0.7
FIELDS x y z
SIZE 4 4 4
TYPE F F F
COUNT 1 1 1
WIDTH 1313
HEIGHT 1
VIEWPOINT 0 0 0 1 0 0 0
POINTS 1313
DATA ascii
0.00049628149 0.047944155 0.082605906
0.063410036 0.047395092 0.082513168
0.065474227 0.047750983 0.082603656
-0.0022255944 0.05248373 0.082516059
0.00099326996 0.052836042 0.082561083
0.063647069 0.052669141 0.082504272
0.065521568 0.052285802 0.082567342
-0.0021172834 0.057328861 0.08255022
0.0015548123 0.057656065 0.082548812
0.058494922 0.059541732 0.083038911
0.062548637 0.057522345 0.082425721
0.065232664 0.056129441 0.083165057
-0.0018178377 0.061757717 0.082550384
0.0023217297 0.062571794 0.082540423
0.0056329663 0.064194985 0.082768261
0.033824757 0.064802758 0.083171964
0.037891399 0.064524032 0.082912944
0.04273187 0.06414406 0.082498997
0.047741611 0.06369748 0.082552388
0.052743711 0.062974073 0.082464673
0.05750319 0.062542759 0.082546435
0.061203778 0.061292339 0.082761399
-2.6362417e-05 0.065130256 0.081922889
0.0031294164 0.066820621 0.082327254
0.0072611957 0.067905694 0.082510099
0.012587655 0.068880923 0.082587093
0.017704047 0.068809681 0.08232294
0.022646772 0.068484008 0.082417227
0.027565148 0.068081811 0.082457222
0.032555874 0.067719772 0.082516469
0.037440311 0.067270018 0.082530364
0.042463657 0.066703133 0.082567006
0.047341347 0.066126078 0.082506597
0.052419297 0.065746926 0.082626186
0.056320254 0.065532468 0.082568504
0.0046914183 0.070188709 0.081257157
0.0082791904 0.071095392 0.082443632
0.012582892 0.071397997 0.082481049
0.017524786 0.071234562 0.08245609
0.022297032 0.070860833 0.082529649
0.027234972 0.070519723 0.08247859
0.031125348 0.070172168 0.082751498
-0.0016965134 -0.095058255 0.08689177
0.0035383909 -0.095302753 0.087567717
0.0079742633 -0.095662177 0.087629884
0.012933676 -0.095895506 0.087645002
0.017649082 -0.096204005 0.087664023
0.022552291 -0.096677542 0.087506711
0.02743339 -0.097134314 0.087533757
0.032419655 -0.096933581 0.08751899
0.036679644 -0.096090704 0.087698504
-0.016365118 -0.091770545 0.087578088
-0.012445535 -0.092137739 0.08754614
-0.0075940751 -0.092351295 0.087590642
-0.0025543426 -0.092754491 0.087633662
0.0024194145 -0.093411155 0.087674931
0.0073929708 -0.093858413 0.087597087
0.012348179 -0.093956411 0.08749824
0.017287325 -0.094213001 0.08751744
0.02208012 -0.094358876 0.087486252
0.027248919 -0.094482973 0.087336421
0.03264486 -0.094352156 0.087227672
0.03813963 -0.092958786 0.087527126
0.041568812 -0.091931932 0.087556191
-0.02089024 -0.085830577 0.087762184
-0.01766884 -0.087782629 0.087574348
-0.012882075 -0.089130342 0.087637052
-0.0083095562 -0.089455009 0.088123612
-0.004611278 -0.089965984 0.088949889
0.039333172 -0.088125028 0.087707199
0.042353593 -0.087485768 0.087563351
0.04526446 -0.086446926 0.086466633
-0.022137713 -0.082332753 0.087614775
-0.01950494 -0.08411283 0.087525949
0.039897244 -0.083860531 0.087673575
0.042759798 -0.082589544 0.087565683
0.045434177 -0.081931107 0.087656155
-0.022320192 -0.077434488 0.087539643
-0.019528665 -0.076785713 0.087223783
0.043136638 -0.077663042 0.087513268
0.04581539 -0.077210173 0.08743415
-0.022103669 -0.072450832 0.087592468
-0.019225791 -0.072239287 0.087613836
0.043652702 -0.072673246 0.087553769
0.046493288 -0.07221064 0.087594658
-0.021617746 -0.067522287 0.087601319
-0.019034157 -0.067234941 0.087615527
0.044155821 -0.067668334 0.087547116
0.047006506 -0.067283399 0.087575465
-0.021213891 -0.0625984 0.087564431
-0.018709414 -0.062348314 0.08760117
0.04467262 -0.062744573 0.087303981
0.047601517 -0.062336341 0.087570362
0.050422721 -0.060438383 0.08901982
-0.020924481 -0.057772022 0.087582946
-0.018389516 -0.057451487 0.087617621
0.047961876 -0.057739094 0.087559871
0.050547738 -0.056790669 0.087548047
-0.020630641 -0.052773703 0.087634213
-0.017961141 -0.052554246 0.0875936
0.048465334 -0.05273157 0.087615035
0.05108127 -0.052397177 0.087582372
-0.020390747 -0.048228905 0.087296292
-0.017718505 -0.047458056 0.087606527
-0.014849542 -0.046834584 0.088851884
0.048981529 -0.047921546 0.087509163
0.051510807 -0.047348913 0.087622695
-0.020253047 -0.043795642 0.087092072
-0.017570799 -0.042559464 0.087560505
-0.014641469 -0.041825838 0.087864831
0.049412709 -0.043030091 0.08740133
0.052074853 -0.042413991 0.087625474
-0.017211961 -0.037604548 0.087596506
-0.014288703 -0.037020862 0.087790899
0.049833678 -0.038164619 0.087801911
0.052617095 -0.037456531 0.087582111
-0.016818814 -0.032511052 0.087564826
-0.013996189 -0.032271516 0.087801911
0.053029533 -0.032576859 0.087595411
0.055430133 -0.031825617 0.087511748
-0.016549921 -0.027508723 0.087593354
-0.013623665 -0.027282717 0.08776997
0.053466626 -0.027501797 0.087434076
0.055965733 -0.027257297 0.087581553
-0.016173782 -0.022720279 0.087621838
-0.013190178 -0.022420591 0.087603465
0.053814117 -0.022589372 0.087454624
0.056445632 -0.022229156 0.087609082
-0.015872829 -0.017792296 0.087537706
-0.012886475 -0.017473586 0.08757139
0.054166093 -0.017547283 0.087495357
0.056714777 -0.017448418 0.087647878
-0.01546768 -0.012607868 0.087131545
-0.012609958 -0.012605419 0.087578192
-0.009766479 -0.011850819 0.08775612
0.054578893 -0.012821291 0.087779552
0.057216909 -0.012543996 0.087565161
-0.01523786 -0.0093390727 0.08728683
-0.012418265 -0.0076366016 0.087569751
-0.0095292581 -0.0072689727 0.087796338
0.054776594 -0.0089019453 0.087874234
0.057740644 -0.0075060576 0.087575495
-0.012250648 -0.0025203314 0.087570369
-0.0093287136 -0.0024288353 0.087583259
0.058096539 -0.0026381949 0.087562926
0.06038015 -0.0017051751 0.087734729
-0.012109906 0.0024059222 0.087563775
-0.0091595119 0.0027439301 0.087825239
0.058374587 0.0023375372 0.087545559
0.060700219 0.0028636206 0.08772482
-0.011775487 0.0074224472 0.08757665
-0.0087560993 0.0077321003 0.087554872
0.058622699 0.00747944 0.087654389
0.06098751 0.0077275811 0.087583005
-0.011197583 0.012408971 0.087560028
-0.008194536 0.01268114 0.087610953
0.05892003 0.012566659 0.087402083
0.061146755 0.012686444 0.087724149
-0.010669242 0.017420337 0.08739128
-0.0077260784 0.017641157 0.087623626
-0.0048172856 0.019498531 0.087412275
0.058949005 0.017536648 0.087426767
0.061418734 0.017544199 0.087632224
-0.010263364 0.021256046 0.087424383
-0.0076233372 0.022483276 0.087545656
-0.0047281412 0.022607505 0.087429218
0.059300736 0.02240954 0.087550595
0.061722275 0.022441978 0.08766979
-0.00727002 0.02730922 0.08750879
-0.0043658111 0.027627798 0.087586291
0.059511293 0.02747673 0.087815516
0.062005263 0.027366804 0.087616123
-0.0068700276 0.032262627 0.087539047
-0.0037911984 0.032618158 0.087542713
0.059640296 0.031814415 0.087060064
0.06243591 0.032522127 0.087556802
-0.0062910011 0.037287552 0.087606601
-0.0031326895 0.037508782 0.087555639
0.059847768 0.036137495 0.086817712
0.062662527 0.037496846 0.087512054
0.065254875 0.038401894 0.087876849
-0.0056715058 0.04204376 0.087586708
-0.00260834 0.042565849 0.087558404
0.00022602157 0.04363073 0.088031314
0.062948771 0.042430267 0.087596603
0.065327086 0.043032076 0.087711938
-0.0052990015 0.046597783 0.087283313
-0.0024614506 0.047534291 0.087609828
0.00062096061 0.048112135 0.087485194
0.063531525 0.047379017 0.087631993
0.065577485 0.047833342 0.08733689
-0.0022193471 0.052457288 0.087602429
0.0010941506 0.052727412 0.087677687
0.063603513 0.052592985 0.087525636
0.065608822 0.052291267 0.08761774
-0.0021166832 0.057369415 0.08752346
0.0016710149 0.057641 0.087589249
0.058630049 0.059402235 0.087104641
0.062618822 0.057564523 0.087568425
0.065248773 0.055996545 0.087416515
-0.0022656852 0.061932426 0.087622866
0.0023535562 0.06263002 0.087554589
0.0056266594 0.064321622 0.087838806
0.033775751 0.064600103 0.087426826
0.03810779 0.064310342 0.087592907
0.042683192 0.063912727 0.087675221
0.047659606 0.063662961 0.087442152
0.052811697 0.063053571 0.087581165
0.057614822 0.062593564 0.087595426
0.061029091 0.061486077 0.087305821
-0.0010034865 0.06519179 0.08889208
0.0031567309 0.066768281 0.087608084
0.0072583486 0.067879155 0.087575033
0.012577175 0.068657033 0.087585874
0.017561805 0.068635419 0.087633781
0.022425365 0.068654425 0.087595284
0.027679779 0.068198316 0.087476991
0.032577436 0.067773364 0.087564923
0.037472084 0.067262508 0.087579042
0.042430181 0.066645123 0.087599397
0.047352269 0.066155098 0.087622374
0.052412279 0.065814704 0.087624617
0.056512296 0.065645374 0.087730877
0.004989123 0.070009857 0.08928936
0.0084516406 0.071011573 0.087486126
0.012567186 0.071411885 0.087520227
0.017457934 0.071193494 0.087491512
0.02233446 0.070797876 0.087587141
0.027125973 0.070493363 0.0875993
0.031261943 0.070225045 0.087616846
-0.0025110214 -0.095228843 0.092626341
0.0034151028 -0.095321178 0.092575781
0.0077645872 -0.095703401 0.092555679
0.012859263 -0.095963337 0.092591643
0.017619973 -0.096226327 0.092609525
0.02253841 -0.09672495 0.092625208
0.027447244 -0.097224928 0.092547759
0.032412421 -0.096960127 0.092519812
0.036681503 -0.096145421 0.092591442
-0.016380806 -0.091671072 0.09257938
-0.012382551 -0.092144363 0.092613071
-0.0075604822 -0.092458099 0.092608646
-0.0024796969 -0.092737183 0.092590243
0.0023765229 -0.093261048 0.092671722
0.0074372762 -0.09367241 0.092611507
0.012456885 -0.093938768 0.092638679
0.017481923 -0.094163433 0.092546657
0.022114411 -0.094434023 0.09264034
0.027330842 -0.094539963 0.092259482
0.032932792 -0.09468282 0.092892677
0.038316336 -0.092918478 0.092668734
0.041440427 -0.092019059 0.092676386
-0.02113772 -0.085885815 0.092664704
-0.017632157 -0.087835781 0.092622325
-0.012819601 -0.088917241 0.092412375
-0.0078784917 -0.089370467 0.092436515
-0.0038867944 -0.089790449 0.092909947
0.039241415 -0.088035561 0.092560135
0.042169794 -0.087504223 0.092598416
0.045362096 -0.086629771 0.092840612
-0.025075575 -0.081985414 0.092933811
-0.022178791 -0.082298718 0.092596203
-0.019484611 -0.083844952 0.092586897
0.039787039 -0.082935616 0.092963435
0.042793036 -0.082552977 0.092605315
0.045495834 -0.082380377 0.092564262
-0.022249656 -0.077442519 0.092599064
-0.019551802 -0.076931119 0.093108915
0.043054115 -0.077688903 0.092533603
0.045823436 -0.077157803 0.092679106
-0.022127125 -0.072475195 0.092608154
-0.019268347 -0.072143823 0.09272287
0.043674007 -0.072695643 0.092563324
0.046469111 -0.07233426 0.092552215
-0.021539234 -0.067584619 0.09256313
-0.018719915 -0.067230172 0.092588603
0.044138148 -0.067705773 0.092597023
0.04699792 -0.067289464 0.092607938
-0.021137608 -0.062563777 0.092613719
-0.018448221 -0.062343471 0.092652686
0.044691104 -0.062927313 0.092677601
0.047549892 -0.062356625 0.092540883
0.050193857 -0.061219946 0.093002036
-0.020805823 -0.057630658 0.09249077
-0.018109916 -0.057408027 0.092597589
0.044999141 -0.059237912 0.0906578
0.047989771 -0.057666752 0.092498906
0.050574895 -0.056970913 0.092657872
-0.020489397 -0.052837245 0.092407405
-0.017835021 -0.052509096 0.092620753
-0.014889467 -0.051562771 0.092561029
0.048547897 -0.052700959 0.092601605
0.051185764 -0.052369986 0.092584878
-0.020265646 -0.048499711 0.092566393
-0.017673578 -0.04752107 0.092660703
-0.014697136 -0.046702627 0.092695162
0.048991721 -0.047873534 0.092464037
0.051702883 -0.047389537 0.092612766
-0.020065451 -0.044170037 0.090714306
-0.017438553 -0.042553127 0.092584893
-0.014459741 -0.042286474 0.092710912
0.049441114 -0.042968277 0.092549928
0.052148364 -0.042517561 0.0926309
-0.017107485 -0.037557919 0.092534199
-0.01402211 -0.037278704 0.092701957
0.049726266 -0.038686771 0.092422985
0.052682083 -0.037437636 0.092545658
-0.016793679 -0.032472536 0.092505902
-0.013610714 -0.032375228 0.09267211
0.053114727 -0.032563794 0.092538491
0.055540599 -0.031786263 0.092627555
-0.016507594 -0.027562441 0.092567012
-0.013334604 -0.027320694 0.092541091
0.053606745 -0.027437055 0.092660554
0.056064948 -0.027170522 0.092563093
-0.016173063 -0.022673117 0.092414968
-0.012929419 -0.022414453 0.092568263
0.053811729 -0.022674019 0.092453703
0.056520354 -0.022197723 0.092657484
-0.015783323 -0.01783468 0.092389613
-0.012625621 -0.017502001 0.09264484
-0.0098644616 -0.016106296 0.092569426
0.05409183 -0.01766338 0.092498787
0.056798555 -0.017502557 0.092606567
-0.01538995 -0.012504251 0.092420012
-0.012595586 -0.012592901 0.092574365
-0.0096212011 -0.0120512 0.092606403
0.054508243 -0.012838157 0.092662744
0.057331074 -0.012485906 0.092591763
-0.015203207 -0.0089305462 0.091490082
-0.012555667 -0.0075838869 0.092574552
-0.0094315829 -0.0074173631 0.092810951
0.054777656 -0.0086522708 0.092296444
0.057787742 -0.0076062637 0.092612699
0.060051553 -0.0058843214 0.092916019
-0.012225151 -0.0024878674 0.092518941
-0.0092202481 -0.0023660923 0.092612103
0.058020193 -0.0025966661 0.092592992
0.060452491 -0.0021194522 0.092809476
-0.011997526 0.0024105739 0.092491083
-0.0088690072 0.0026003467 0.092675529
0.058170676 0.0024250471 0.092533454
0.060831536 0.0026757312 0.092650309
-0.011670665 0.0074083405 0.092552319
-0.0084598009 0.0077244728 0.092651889
0.058588799 0.007474788 0.092485256
0.061168406 0.0076635 0.092626661
-0.011183295 0.012503116 0.092598572
-0.0080178529 0.012701457 0.09265019
0.058794115 0.012408461 0.092533365
0.061210603 0.012621345 0.09257292
-0.010587469 0.017200537 0.092475668
-0.0076407758 0.017635981 0.09263745
-0.0049350928 0.019608729 0.09312892
0.059267458 0.017321352 0.092307344
0.061611149 0.017502584 0.092551388
-0.010220647 0.020889588 0.092177488
-0.007526245 0.022400877 0.092542976
-0.0047674892 0.023083035 0.092865661
0.059488498 0.022236401 0.092265077
0.061821274 0.022455994 0.092642061
-0.0071503697 0.027297104 0.092559382
-0.0043460638 0.027674798 0.092722856
0.059574772 0.027606575 0.091990337
0.062229674 0.02746477 0.092594795
-0.0067379316 0.032255013 0.092550389
-0.0037138162 0.032743242 0.092541866
0.059770942 0.032100562 0.091966242
0.062612183 0.032520749 0.092631131
0.065387174 0.034673277 0.093173794
-0.0062050135 0.037330344 0.092536524
-0.0029631588 0.037545349 0.092562996
0.05965098 0.036871657 0.091798387
0.062925063 0.037468694 0.092528753
0.065353781 0.037623361 0.092980407
-0.0056666434 0.042064432 0.092624895
-0.0026184819 0.042610578 0.092602864
0.00027559415 0.043662865 0.092811719
0.063325286 0.04252303 0.092617355
0.065469608 0.042861536 0.092669368
-0.0052184896 0.046926692 0.092376567
-0.0024613093 0.047562018 0.09260077
0.00078398862 0.047970705 0.092644148
0.063497849 0.047466528 0.092439726
0.065568738 0.047772724 0.092715874
-0.0021936703 0.052468754 0.092619479
0.0012528173 0.052742131 0.092604913
0.063663289 0.052642308 0.092510708
0.065539993 0.052210703 0.092595868
-0.0021546292 0.057351548 0.092510112
0.0017922352 0.057673872 0.092551574
0.05883858 0.059512477 0.092482477
0.06267646 0.057500411 0.092530951
0.065242857 0.056420453 0.093154833
-0.0022135088 0.061731242 0.092400901
0.0023644955 0.062596187 0.092546158
0.0055349045 0.064253628 0.092476405
0.034159672 0.064701788 0.092930064
0.037862465 0.064165726 0.092577942
0.042764481 0.063743152 0.09258952
0.047681488 0.063376024 0.09262947
0.052642774 0.063035682 0.092547335
0.057599373 0.06266398 0.092548519
0.060991246 0.06154659 0.092773058
-8.4077605e-05 0.065363489 0.09148477
0.0030464833 0.066928312 0.092518352
0.0072442587 0.067856327 0.092514478
0.012482043 0.068502977 0.092580155
0.017512558 0.068489917 0.092650883
0.022445761 0.068475552 0.092692807
0.027585184 0.068122782 0.092619523
0.03243294 0.067777395 0.092577778
0.037472904 0.067281388 0.092563234
0.042407174 0.066605367 0.092620753
0.047504485 0.066187061 0.092633873
0.052425884 0.065905742 0.092779219
0.056436796 0.065675974 0.092610732
0.0049422784 0.070033096 0.090384446
0.0083143655 0.07094311 0.092477061
0.012571833 0.071407668 0.092460379
0.01732941 0.071183726 0.09248995
0.022249 0.070760749 0.092514984
0.027136063 0.070515223 0.092588879
0.03139504 0.070169337 0.092522301
-0.010290996 -0.095023312 0.095989801
-0.0021179321 -0.095356606 0.097933128
0.0033304468 -0.095349558 0.0975051
0.0077543729 -0.095701307 0.097638316
0.012764564 -0.095943987 0.097565249
0.017615987 -0.096315287 0.097518466
0.022566231 -0.096750803 0.097611137
0.027430102 -0.097199738 0.097527735
0.032372899 -0.097011067 0.097541012
0.036663443 -0.096238747 0.097529463
0.04025754 -0.095110878 0.098534323
-0.016510418 -0.091740295 0.097526148
-0.01241611 -0.09213189 0.09753795
-0.0076375608 -0.092519492 0.097499475
-0.0024810873 -0.092777088 0.097383231
0.002465751 -0.093120404 0.09751223
0.0074128858 -0.093511 0.097463697
0.012285228 -0.093780942 0.097637266
0.017328015 -0.094083138 0.097666278
0.022292577 -0.094341941 0.09761785
0.026950086 -0.094624028 0.097462907
0.032455385 -0.094860777 0.097494431
0.038261194 -0.092947111 0.097524337
0.04159236 -0.092055529 0.097553983
-0.021106996 -0.086050361 0.097848363
-0.017725023 -0.087786101 0.097593665
-0.013060296 -0.08897265 0.097393163
-0.0081916945 -0.089349352 0.097553052
-0.0035100286 -0.089799225 0.096125312
0.039256856 -0.087821707 0.097579442
0.042069443 -0.087463908 0.0975025
0.045493651 -0.086305395 0.097132541
-0.02213661 -0.082271732 0.097559445
-0.019376542 -0.083355129 0.097405337
0.039715458 -0.083199836 0.097402945
0.042662039 -0.08252003 0.097591408
0.045642793 -0.082419343 0.097439684
-0.02217124 -0.077488855 0.0975582
-0.01933424 -0.077035442 0.097728238
0.03989321 -0.079557769 0.097297877
0.043012671 -0.077644169 0.097518981
0.045943797 -0.077271871 0.097526789
-0.021991719 -0.072473846 0.097444862
-0.019139089 -0.072105318 0.097570248
0.043566421 -0.072670691 0.097536109
0.046353348 -0.072300203 0.0974757
-0.021435203 -0.06754525 0.0974629
-0.018664286 -0.067192949 0.097546034
0.043940391 -0.067639261 0.097577482
0.047000043 -0.067311302 0.097505249
-0.021094115 -0.062600061 0.097525217
-0.018318338 -0.062462177 0.097584501
0.044425912 -0.063056037 0.097604737
0.047602337 -0.062367924 0.097567633
0.050190106 -0.061221465 0.097438395
-0.020713096 -0.057895411 0.097454622
-0.018036164 -0.05749172 0.097619548
0.047989435 -0.057659235 0.097430825
0.050622493 -0.057055302 0.097444639
-0.020370504 -0.052660193 0.097365536
-0.017671965 -0.052550815 0.097561792
-0.014630664 -0.051821083 0.097595103
0.048561092 -0.052695971 0.097425111
0.051236808 -0.052241415 0.097638927
-0.020199973 -0.048688747 0.097090527
-0.017599462 -0.047599245 0.097533889
-0.014483608 -0.046771809 0.097739056
0.048947971 -0.04793467 0.09753079
0.051737551 -0.047354989 0.097542249
-0.017266162 -0.04256187 0.097549699
-0.014194934 -0.042206287 0.097783312
0.049361181 -0.042855889 0.097466238
0.052209828 -0.042410396 0.097545072
-0.016935704 -0.037524514 0.097546436
-0.013774079 -0.037309177 0.097549446
0.049761694 -0.038489286 0.09764725
0.05268864 -0.037512295 0.097482257
0.055377133 -0.035778955 0.09858755
-0.016699659 -0.032570563 0.097383395
-0.013389464 -0.032269597 0.097493328
0.053040896 -0.032477953 0.097600542
0.055484556 -0.032082457 0.097477242
-0.016369192 -0.0276719 0.097517729
-0.013204653 -0.027381573 0.097556487
0.053568739 -0.027478285 0.097545691
0.056072082 -0.027042357 0.097532012
-0.016043823 -0.022604553 0.097395904
-0.012902127 -0.022454087 0.097558908
0.053601407 -0.022663081 0.097415306
0.056559224 -0.022315135 0.097564846
-0.015716102 -0.017866606 0.097131021
-0.012574791 -0.017483275 0.097519033
-0.0098309685 -0.016637636 0.09771806
0.054226119 -0.017584089 0.097537696
0.056983303 -0.017503036 0.097488552
-0.015334492 -0.012882342 0.09755908
-0.012470243 -0.012519256 0.09749902
-0.0094664926 -0.012070429 0.097641788
0.054585315 -0.013099384 0.097605929
0.057465639 -0.012484034 0.097568333
-0.012414199 -0.0076690395 0.09756124
-0.0092347227 -0.0074765058 0.097711779
0.05483111 -0.0086431028 0.097470976
0.057750862 -0.0076144817 0.097482651
0.060194731 -0.0061783018 0.0978662
-0.012058404 -0.0025703888 0.097372681
-0.008962187 -0.0023030278 0.097572282
0.05797169 -0.0026323972 0.097498164
0.060522057 -0.0021390812 0.097588822
-0.011888392 0.0025131425 0.097350106
-0.0085993037 0.002548683 0.097575448
0.058366008 0.0023650923 0.097562902
0.06095865 0.0027905519 0.097582132
-0.011493161 0.0073426259 0.097389489
-0.0082762735 0.0076349559 0.097593695
0.058556255 0.0073315329 0.097408913
0.061158117 0.0077224192 0.09759672
-0.011110882 0.012403469 0.097447224
-0.0080086254 0.012663657 0.09753526
0.058726661 0.01239223 0.097420059
0.061312694 0.012571081 0.097500071
-0.010624894 0.017259223 0.097255893
-0.0075803502 0.017568113 0.097576216
-0.0048708632 0.019518241 0.098557845
0.059229586 0.01741164 0.097554579
0.061791409 0.017629426 0.097548731
-0.01020572 0.020856785 0.096669495
-0.0075557581 0.022504721 0.097568423
-0.0045686499 0.023122219 0.097879052
0.059534498 0.022209954 0.097515948
0.062032077 0.022551684 0.097602911
-0.0071681975 0.027329503 0.097474873
-0.0041575348 0.027732914 0.097614773
0.059824698 0.026810855 0.097495712
0.062405918 0.027472055 0.097563803
-0.0067947325 0.032242063 0.097479112
-0.0036573897 0.032596864 0.097628474
0.059638992 0.033530768 0.096487641
0.062707275 0.032386538 0.097501695
0.065209784 0.034600936 0.097053014
-0.0061560301 0.037406579 0.097528495
-0.002960573 0.037608303 0.097517647
0.063109681 0.037456233 0.097493067
0.065393075 0.037822086 0.097403266
-0.0056681163 0.042093843 0.097624034
-0.0026612012 0.042516634 0.097546875
0.00023302007 0.043490544 0.097730555
0.063348792 0.042419676 0.097495779
0.065578535 0.043035615 0.097629152
-0.0052524419 0.046268608 0.097515009
-0.0024916052 0.047543865 0.097555026
0.0007188326 0.047789197 0.097422242
0.06351205 0.047472674 0.097419903
0.065595187 0.047672484 0.097541332
-0.0021974097 0.052525476 0.097525746
0.0013638932 0.052852839 0.097379573
0.063784741 0.052646 0.097415566
0.065627597 0.052373681 0.097697683
-0.0022565455 0.057385031 0.097537279
0.0018983999 0.057661936 0.097582564
0.058696847 0.059472196 0.09777537
0.062676422 0.057683356 0.097485833
0.065189347 0.056287415 0.09816476
-0.0021367217 0.061776847 0.097658075
0.0024054088 0.062533587 0.097508527
0.0058075245 0.06376949 0.097762004
0.033929639 0.064617649 0.097262681
0.037824597 0.064259395 0.097355098
0.042709462 0.063684404 0.097561821
0.047726393 0.063417055 0.097517438
0.052651741 0.062826678 0.097472578
0.057524018 0.062536255 0.097454987
0.06105445 0.06165221 0.097589225
0.0032218127 0.066814013 0.09750852
0.0073242541 0.067680575 0.097568415
0.012554305 0.068352528 0.097576618
0.017585676 0.068420626 0.097551152
0.022603024 0.068361089 0.097562052
0.027487306 0.068033636 0.097587481
0.032461699 0.067761347 0.097560212
0.037388824 0.06730593 0.097593524
0.042387087 0.066652849 0.097561657
0.047420386 0.066178322 0.097590394
0.052568596 0.065943345 0.097470716
0.056649495 0.065604113 0.097426258
0.060012437 0.065214828 0.09539745
0.008407047 0.070949137 0.097541556
0.012523243 0.071471982 0.097416028
0.017430894 0.071061045 0.097408824
0.022379311 0.070761375 0.097415008
0.027171027 0.070526026 0.097560987
0.031198619 0.070182167 0.097657442
0.036038991 0.070017897 0.099607207
-0.008182982 -0.095081128 0.10247946
-0.0016654446 -0.095423661 0.10227226
0.002969105 -0.095445454 0.10275894
0.0077377781 -0.095760778 0.10245248
0.012740763 -0.095941827 0.1024586
0.017629199 -0.096305408 0.10236669
0.022617111 -0.096735694 0.10253523
0.02760436 -0.097142957 0.1024003
0.032387663 -0.097158983 0.1025094
0.036519352 -0.096299991 0.10255124
0.04027231 -0.095121987 0.10225686
-0.016575618 -0.091822334 0.10229081
-0.012439749 -0.092035972 0.10246852
-0.0076214829 -0.092487186 0.10240471
-0.002518811 -0.092909172 0.10237484
0.0024429704 -0.093263999 0.10238529
0.0074304095 -0.09352874 0.10252329
0.012380821 -0.093627535 0.10241479
0.017506441 -0.093900815 0.1024241
0.022321129 -0.094247967 0.10252791
0.027122801 -0.094577007 0.10271389
0.032516539 -0.094664611 0.10314128
0.038203459 -0.093020469 0.10249029
0.041535448 -0.092053004 0.10239612
-0.020841455 -0.086253077 0.10254733
-0.017683545 -0.087712936 0.10254133
-0.01323521 -0.089036308 0.10257759
-0.008140903 -0.089623533 0.10263589
-0.0049258517 -0.089960381 0.10215463
0.039256126 -0.087963693 0.10252627
0.042099573 -0.087469198 0.10248569
0.045593511 -0.086379111 0.10260435
-0.021978358 -0.082363531 0.1024176
-0.01939784 -0.083154008 0.10242087
0.039711971 -0.082961522 0.1025052
0.042644758 -0.082490221 0.10251295
0.045674093 -0.082499161 0.10230082
-0.022087747 -0.077455193 0.10249196
-0.019247562 -0.076721318 0.10259703
0.039916463 -0.079367079 0.10278404
0.043038648 -0.077606596 0.10243405
0.045907572 -0.077346928 0.10237288
-0.021922605 -0.072471358 0.10242864
-0.018973716 -0.07221891 0.10251107
0.043479849 -0.072741874 0.10253404
0.0463304 -0.072259359 0.10239825
-0.021457637 -0.067551129 0.1023042
-0.018635716 -0.067279965 0.10246081
0.043890536 -0.067763314 0.10251894
0.047030773 -0.067360513 0.10244245
-0.020997694 -0.06261573 0.10236716
-0.018038359 -0.062430404 0.10250883
0.044341348 -0.063312538 0.10260851
0.047569126 -0.06244627 0.10251354
0.050205171 -0.061253913 0.10201015
-0.020595562 -0.057785589 0.10233328
-0.01783815 -0.057487734 0.10242954
-0.01489534 -0.056014679 0.10380618
0.047962099 -0.057646722 0.10234681
0.050568458 -0.056887854 0.10242482
-0.020254554 -0.053359397 0.10203012
-0.017535897 -0.052537337 0.10251415
-0.014595781 -0.051921185 0.1029249
0.048560288 -0.052721042 0.10238307
0.051293194 -0.052353475 0.10243084
-0.017341459 -0.047617536 0.10240528
-0.01425035 -0.047213025 0.10242694
0.04889876 -0.047833171 0.10239495
0.051729638 -0.047464736 0.10243315
-0.017156295 -0.042632706 0.10241386
-0.014116616 -0.042303521 0.10264987
0.049352285 -0.042817634 0.10241484
0.052223332 -0.042471815 0.10252246
-0.016850518 -0.037526261 0.10242251
-0.013699749 -0.037412506 0.10257261
0.049701452 -0.038714595 0.1024004
0.052690331 -0.037463676 0.10239261
0.055294622 -0.035696071 0.10260914
-0.016515076 -0.032490611 0.10240684
-0.013207879 -0.032429483 0.10248919
0.052935351 -0.032530464 0.10249951
0.055567376 -0.032114167 0.10248525
-0.016256465 -0.0276102 0.10233048
-0.012958584 -0.02743255 0.10257117
0.053469449 -0.027540065 0.10250983
0.05612772 -0.027152192 0.10236272
-0.015955515 -0.022455912 0.1024719
-0.012729648 -0.022408906 0.10247555
-0.0098748663 -0.021356732 0.10313553
0.053686686 -0.022670519 0.1023589
0.056548987 -0.022298079 0.10238644
-0.015591407 -0.017785832 0.10232209
-0.012537013 -0.017543886 0.10253344
-0.0096786777 -0.017130749 0.10277886
0.054212395 -0.017585784 0.10238049
0.057135534 -0.017531767 0.10248256
-0.01522065 -0.01397536 0.10198008
-0.012406003 -0.012620362 0.1024368
-0.0092970505 -0.01233985 0.10273325
0.054623339 -0.013067161 0.1023006
0.057623334 -0.012481702 0.10245157
-0.012261268 -0.0076628616 0.10250476
-0.0090829004 -0.0074464963 0.10255287
0.054935627 -0.0099049639 0.10143711
0.057762165 -0.0076701175 0.10242977
0.060255717 -0.0063782372 0.1023043
-0.011957164 -0.0025408096 0.10247572
-0.0086873397 -0.002377711 0.10255892
0.058141313 -0.0025478029 0.10244961
0.060579542 -0.0023591504 0.10249101
-0.011722876 0.0024387478 0.10242139
-0.0084386449 0.0025716657 0.10258455
0.058442228 0.0024828827 0.10250304
0.060993165 0.0026897539 0.10242326
-0.011586154 0.00732629 0.1025058
-0.0082865888 0.0076306518 0.10244971
0.058598362 0.0072215889 0.1024611
0.061186638 0.0077819386 0.10243677
-0.011108759 0.012409545 0.10233735
-0.0077887564 0.012628919 0.10244866
-0.0047871531 0.014093189 0.10350151
0.058939304 0.012502756 0.10251949
0.0614723 0.012647313 0.10245029
-0.010521744 0.017489336 0.10241302
-0.0075666746 0.01752015 0.10245469
-0.00462955 0.018001221 0.10278577
0.059046682 0.017545594 0.10246329
0.061932117 0.017641509 0.10243616
-0.010357908 0.020679152 0.101998
-0.0074730348 0.022381309 0.10239465
-0.0043389914 0.022828491 0.10283038
0.059327554 0.022227861 0.10242055
0.06221902 0.022469006 0.10246303
-0.010090889 0.026061349 0.10045182
-0.0071562906 0.02729072 0.1025032
-0.0039726519 0.027580792 0.10253779
0.059677802 0.025945727 0.10310652
0.062554792 0.027385648 0.10247274
0.065056652 0.029994821 0.10339333
-0.0067101121 0.032400589 0.1024541
-0.0034737596 0.03257598 0.10247692
0.059896819 0.031733453 0.1007445
0.062918872 0.032390621 0.10237325
0.065207101 0.033761974 0.10249752
-0.0061721057 0.037393548 0.1025195
-0.0029816818 0.037559647 0.10242015
0.063170008 0.037398245 0.1025039
0.06546171 0.038057305 0.10242504
-0.0056329537 0.042169522 0.10245796
-0.0025597014 0.042542826 0.10246124
0.00036768289 0.043731872 0.10292772
0.063271202 0.042373087 0.10243631
0.065482013 0.042746302 0.10274678
-0.0052971086 0.046524558 0.10258714
-0.0024194201 0.047512531 0.10243613
0.00076505833 0.047981091 0.10243683
0.063512653 0.047463879 0.10242813
0.065700188 0.047648113 0.10242299
-0.0021944446 0.052541167 0.1024095
0.0012452295 0.05272552 0.10245964
0.063628532 0.052748732 0.1025212
0.065679908 0.052326895 0.10247887
-0.0020248459 0.057331279 0.10243104
0.0018698272 0.057733022 0.10244714
0.058661729 0.059475806 0.10255649
0.062717803 0.057692237 0.10239915
0.065224692 0.056424655 0.10256354
-0.0019254972 0.061699394 0.10243338
0.0023890603 0.062538676 0.10245557
0.0058238953 0.063930213 0.10221053
0.034041267 0.064626418 0.10346861
0.037692983 0.064385355 0.10247696
0.042709157 0.063903593 0.1024771
0.047744282 0.063313387 0.1024571
0.052728001 0.062903598 0.10243376
0.057417177 0.062517226 0.10246028
0.061156388 0.061753497 0.10260848
-0.0023122558 0.065213054 0.10192403
0.0032748426 0.06681288 0.10232284
0.007386202 0.067746274 0.1024256
0.012593089 0.068292536 0.10257751
0.017403496 0.068395428 0.10252248
0.022514287 0.068236671 0.10250334
0.027531095 0.067924492 0.10253617
0.032498784 0.06768088 0.10244437
0.037368029 0.067304775 0.10252933
0.042355653 0.066681981 0.10251302
0.047472738 0.066173837 0.10249285
0.052567985 0.065944612 0.10240335
0.056696475 0.06556204 0.1024817
0.0047848709 0.070437655 0.10235927
0.0082389358 0.071000308 0.10249963
0.012538282 0.071369089 0.10226504
0.017343435 0.071100868 0.10237049
0.022463897 0.070755839 0.10234635
0.027235333 0.070508428 0.10239465
0.031548012 0.070165314 0.10239106
-0.006929954 -0.095138766 0.10668965
-0.0020664062 -0.095212802 0.10784346
0.0028096163 -0.095417291 0.10759907
0.0076522422 -0.095863231 0.10732584
0.012618464 -0.095965654 0.10738584
0.017514633 -0.096367605 0.107319
0.022531869 -0.096827619 0.10736594
0.027473783 -0.097266503 0.10742971
0.03235282 -0.097263053 0.10744239
0.036725383 -0.096292935 0.1074722
0.040221591 -0.095364258 0.10750057
-0.016740285 -0.091620624 0.10749909
-0.012408871 -0.092234328 0.10747156
-0.0075863213 -0.092542671 0.1074473
-0.0025374973 -0.092961773 0.10741051
0.0023985519 -0.093316026 0.10735165
0.0074892459 -0.093630269 0.1073795
0.012617905 -0.093761973 0.10757449
0.01723912 -0.093981795 0.10747843
0.022434847 -0.094172366 0.10751606
0.027217185 -0.094460033 0.10725961
0.032424431 -0.094610043 0.10760622
0.038174074 -0.093084238 0.10746354
0.041461404 -0.091874152 0.10735577
-0.020776879 -0.086362198 0.10742988
-0.017697793 -0.087747268 0.10751604
-0.013013868 -0.089037023 0.107401
-0.0081947297 -0.089601494 0.10780137
0.039151441 -0.088123001 0.10740896
0.042204835 -0.087530494 0.10752035
0.045628037 -0.086312465 0.10690723
-0.021641165 -0.082368784 0.10734307
-0.019267417 -0.083032556 0.10747302
0.039629772 -0.083706811 0.10770154
0.042661082 -0.082474515 0.10739275
0.045684308 -0.082584411 0.10732689
-0.022018479 -0.07749965 0.10741992
-0.019292345 -0.077086478 0.10752383
0.043058001 -0.077533282 0.10741594
0.045774352 -0.077342249 0.10734554
-0.021830367 -0.072510168 0.10734254
-0.018926237 -0.072199009 0.10741269
0.043481644 -0.072658084 0.10747321
0.046422224 -0.072214231 0.10735326
-0.021350553 -0.067578778 0.10732221
-0.018455947 -0.067274906 0.1074177
0.043839093 -0.067786597 0.10738234
0.047060393 -0.067395285 0.10743635
-0.020843217 -0.062751986 0.10731445
-0.017898088 -0.062322214 0.10743969
0.044490732 -0.063577347 0.10733055
0.047544058 -0.062447302 0.10740371
0.050306674 -0.061199494 0.10715048
-0.02042775 -0.057908125 0.10727343
-0.017562132 -0.057472698 0.10743413
-0.014776148 -0.056712147 0.10796113
0.048004977 -0.057680286 0.10740045
0.050602071 -0.057019956 0.10737332
-0.020121783 -0.054016758 0.10669725
-0.017517284 -0.052561361 0.10743472
-0.014484374 -0.052275699 0.1076574
0.048623264 -0.052740965 0.10735279
0.051214609 -0.052332956 0.10744215
-0.017264951 -0.047616567 0.10742507
-0.014094473 -0.047397826 0.10759831
0.04891409 -0.04784305 0.10736964
0.051816925 -0.047437657 0.10740695
-0.01702974 -0.042611737 0.10735139
-0.013788824 -0.042468362 0.10751712
0.049355652 -0.043120168 0.10737105
0.052301027 -0.042442773 0.10747124
0.055119667 -0.040759005 0.10886326
-0.016639518 -0.037560813 0.10734882
-0.013332654 -0.037385259 0.10749069
0.049716398 -0.03875868 0.10709423
0.052776355 -0.03750531 0.10741409
0.055378564 -0.03561661 0.10767289
-0.016428407 -0.032521054 0.10735565
-0.013015724 -0.032444581 0.10748215
-0.0098895906 -0.030896664 0.10987426
0.052992351 -0.03256806 0.10740442
0.055643868 -0.032151289 0.10746133
-0.016020566 -0.027448928 0.10734931
-0.01266463 -0.027409015 0.10741431
-0.0098372921 -0.026775749 0.10833029
0.053493664 -0.027560908 0.10733552
0.056166533 -0.027153419 0.10738875
-0.015787899 -0.022594417 0.10747705
-0.012607141 -0.022444729 0.1074281
-0.0096598119 -0.022481469 0.10816748
0.053972639 -0.022768613 0.10728034
0.056541406 -0.022354877 0.10745042
-0.015337368 -0.018276362 0.10743985
-0.01246604 -0.017590761 0.10748812
-0.0095218644 -0.017175227 0.10765328
0.054363072 -0.017748632 0.10740113
0.057038631 -0.017476417 0.10743991
-0.012318162 -0.0127023 0.10735079
-0.0091645578 -0.012407323 0.10760207
0.054613974 -0.013654858 0.10694381
0.057588045 -0.012553846 0.10737806
-0.012087677 -0.0076286453 0.10728741
-0.0089655872 -0.0073661041 0.10745253
0.057933778 -0.0077635059 0.10733592
0.060289666 -0.0064198957 0.10754143
-0.011793124 -0.0024777111 0.10726397
-0.0084268646 -0.002465754 0.10741398
0.058237597 -0.0026685414 0.10746244
0.060578745 -0.0023872594 0.10741695
-0.011583242 0.0025046153 0.10737348
-0.0081390245 0.0025395176 0.10751803
0.05869627 0.002377128 0.10734075
0.06102524 0.0027193388 0.10737751
-0.011399144 0.0073208511 0.10735885
-0.0080371322 0.0076357457 0.10742587
0.05880665 0.0074020522 0.1074489
0.06125192 0.0076888381 0.10744601
-0.011069869 0.012470923 0.10729395
-0.0076673464 0.012725755 0.10734692
-0.0049129664 0.014481901 0.10827552
0.059039369 0.012480272 0.10745195
0.061573029 0.012637367 0.10746883
-0.010503856 0.017237086 0.10749517
-0.0074705281 0.017589193 0.10741697
-0.0045798956 0.01831416 0.10733332
0.059209075 0.017280288 0.10734771
0.061971184 0.017580701 0.10743628
-0.010257985 0.020755298 0.1071315
-0.0074591548 0.022384813 0.10735104
-0.0041815708 0.022623371 0.10762122
0.059613716 0.022212295 0.10738969
0.062369391 0.022499029 0.10738857
-0.0071041039 0.027303824 0.1074314
-0.0038123187 0.02761833 0.10750706
0.059776291 0.026603797 0.10709967
0.062710866 0.027412105 0.10740853
-0.0066720913 0.03232494 0.10737935
-0.0033430899 0.032534648 0.10741585
0.059963644 0.030250061 0.10636193
0.062932953 0.032415494 0.10731482
0.065143801 0.032296687 0.10778412
-0.0061577847 0.037237737 0.10743134
-0.0027716632 0.037561629 0.10741044
2.9986197e-05 0.038953975 0.10663485
0.063064039 0.037383575 0.10744356
0.065505952 0.037982229 0.10743769
-0.0055581881 0.042143341 0.10746558
-0.0025427709 0.042502236 0.10748591
0.00031107123 0.04309703 0.10736426
0.063279077 0.042398516 0.10737292
0.065546326 0.042518828 0.10745751
-0.0052670594 0.046695031 0.10717188
-0.0024361147 0.047543444 0.10741329
0.00089643348 0.047906019 0.107595
0.063501336 0.047453534 0.10742453
0.06581486 0.047676153 0.10741989
-0.0022042592 0.052519515 0.10740279
0.0012599842 0.052729491 0.107449
0.063496217 0.052653208 0.1073846
0.065678343 0.052315045 0.10754991
-0.0021048458 0.057196174 0.10744262
0.0018359071 0.057697646 0.1073946
0.058360051 0.059453852 0.10762892
0.062788449 0.057661556 0.10738925
0.065339006 0.05618779 0.1077012
-0.0019532847 0.061803289 0.10744088
0.002459557 0.062497023 0.10745884
0.0056001204 0.063674636 0.10749128
0.034207463 0.064695269 0.1065512
0.037846707 0.064552836 0.10733178
0.042641178 0.064109541 0.10738656
0.047697723 0.063488334 0.10747506
0.0526338 0.062833592 0.10748531
0.057484336 0.062568411 0.10741258
0.061108127 0.061812706 0.10743769
0.0034463995 0.06663952 0.10740677
0.0074190334 0.067647085 0.1074749
0.012485961 0.068284743 0.10752989
0.017529266 0.068179727 0.10744919
0.022442199 0.068072498 0.10747673
0.027529752 0.067832172 0.10742414
0.032477148 0.067727514 0.10741559
0.037395027 0.06726858 0.10743568
0.04244956 0.066740043 0.10743947
0.047383565 0.066243879 0.10743796
0.052544851 0.065900855 0.10749148
0.056762625 0.065766051 0.10737696
0.0081409086 0.070946895 0.10745279
0.0126195 0.071378939 0.10729014
0.017369624 0.071088105 0.10733978
0.022448378 0.07073427 0.10744108
0.027195526 0.070452332 0.10736585
0.031720061 0.070251502 0.1072179
-0.010760951 -0.095119923 0.11330482
-0.0073985383 -0.095137529 0.11313988
-0.0022263657 -0.095249467 0.11284287
0.0029337695 -0.095474787 0.11252955
0.0076702503 -0.095874973 0.1123843
0.012653697 -0.096018158 0.11243679
0.017464487 -0.09632992 0.11245868
0.022537464 -0.096831866 0.1124357
0.027455736 -0.09731891 0.11243261
0.032316573 -0.097207725 0.11244654
0.036571164 -0.096382111 0.11235844
0.040388018 -0.095137291 0.11127505
-0.01667075 -0.091782406 0.1124137
-0.012435643 -0.092338726 0.11244494
-0.0075786305 -0.092461877 0.11243608
-0.0025922246 -0.092804812 0.11244205
0.0024002404 -0.093115881 0.11247499
0.0075004189 -0.093528919 0.11256377
0.012492646 -0.093709491 0.11243996
0.017394081 -0.09393654 0.11254975
0.022360072 -0.094134659 0.11246116
0.027414041 -0.094411299 0.11246412
0.032512844 -0.094421163 0.11240848
0.038152866 -0.093010753 0.11241875
0.041463334 -0.091932848 0.1124654
-0.02075376 -0.08621636 0.11244565
-0.017610395 -0.087653987 0.11251103
-0.01287603 -0.088934772 0.11250482
-0.0081836702 -0.089460254 0.11270355
-0.004475405 -0.089762874 0.11309382
0.039306562 -0.088094719 0.11231539
0.042192016 -0.087433763 0.11242347
0.045548543 -0.085842468 0.11283821
-0.021445919 -0.08229918 0.11235173
-0.019160938 -0.082862988 0.11261154
0.039613612 -0.084009126 0.11316582
0.042727027 -0.082513131 0.11243096
0.045775201 -0.082522355 0.11260639
-0.021952843 -0.077551484 0.11244884
-0.019197915 -0.077147394 0.11256086
0.04323611 -0.077594884 0.11247426
0.045821283 -0.077261969 0.11253304
-0.021677462 -0.072590515 0.11238721
-0.018769084 -0.072208546 0.11253754
0.043676831 -0.072741903 0.11247671
0.04646622 -0.072337858 0.1124099
-0.021056451 -0.067525797 0.11237492
-0.018197658 -0.06728366 0.11250759
0.044074688 -0.067630515 0.11219214
0.047071733 -0.067279406 0.11243881
-0.020638322 -0.062807418 0.11242497
-0.017696941 -0.062428046 0.11244396
-0.014696557 -0.060904775 0.11316609
0.044656996 -0.06333974 0.11259148
0.047608536 -0.062338091 0.11244772
0.050630651 -0.060829069 0.11242929
-0.020252146 -0.058545098 0.1117887
-0.017564315 -0.057549968 0.11247551
-0.0145837 -0.056910913 0.11260909
0.047976401 -0.05754073 0.11246967
0.050702449 -0.057231262 0.11248902
-0.017393721 -0.052665588 0.11235922
-0.014278461 -0.05217357 0.11267338
0.048515853 -0.05250838 0.11248657
0.051347543 -0.052350271 0.11248127
-0.017086597 -0.047656968 0.11239633
-0.013945174 -0.047414489 0.11256389
0.048887812 -0.047822323 0.11240873
0.051881094 -0.047411077 0.11240069
-0.016764052 -0.042629786 0.11241484
-0.013488657 -0.042434834 0.11254323
0.049418814 -0.042796507 0.11254736
0.052398395 -0.042398088 0.11242653
0.055143576 -0.040483925 0.11073651
-0.016455196 -0.037583131 0.1123049
-0.013135458 -0.03737697 0.11247996
0.049815781 -0.038690608 0.11245894
0.052790627 -0.037553288 0.11242618
0.055436023 -0.036080651 0.11239886
-0.016354287 -0.032378428 0.11226644
-0.01285164 -0.032403443 0.11248872
-0.009697184 -0.030720303 0.11325351
0.053064112 -0.03249139 0.1124249
0.055732161 -0.032213464 0.11234795
-0.015913678 -0.027544068 0.11227844
-0.012467566 -0.027412711 0.11246506
-0.0096520213 -0.027086845 0.11262339
0.053812813 -0.027610464 0.11245587
0.05629522 -0.027250316 0.11247548
-0.015634611 -0.022675602 0.11252346
-0.012509015 -0.022517536 0.11240374
-0.0093837213 -0.022233143 0.11280936
0.054218821 -0.022701129 0.11250735
0.056599021 -0.022358619 0.11248457
-0.015216946 -0.018733013 0.112091
-0.012425026 -0.017527333 0.11246825
-0.0091679748 -0.017355114 0.11271062
0.054492373 -0.017808573 0.11250149
0.057127509 -0.017438782 0.11246873
-0.012170157 -0.012668083 0.11248647
-0.0088809868 -0.012478608 0.11246819
0.054712709 -0.013196971 0.11242498
0.057550292 -0.012505201 0.11243565
-0.011977427 -0.0076781749 0.11255869
-0.0086622657 -0.0074197273 0.11253329
0.057979483 -0.0076914607 0.11248684
0.060319547 -0.0067108204 0.11243317
-0.011735792 -0.002661464 0.1125332
-0.0082008876 -0.0024180373 0.11241557
0.058293201 -0.0025989215 0.11240398
0.060643256 -0.0023587672 0.11245836
-0.011490823 0.0024683885 0.11238811
-0.0081136776 0.0025218218 0.11245745
-0.0047883727 0.0014917742 0.11121223
0.058708597 0.0023546189 0.11243784
0.061066326 0.0026637893 0.11247303
-0.011243668 0.00743279 0.11235724
-0.0079393284 0.0076298155 0.11243948
0.058953967 0.0074481964 0.11243904
0.061356246 0.0075954502 0.11239409
-0.01085974 0.012259287 0.11247272
-0.0075183259 0.012630885 0.11240625
-0.0047435733 0.014422985 0.11442178
0.05926986 0.012231762 0.11235017
0.061715804 0.012738162 0.11242858
-0.010419587 0.016932867 0.1124432
-0.0073905294 0.017580323 0.11239958
-0.0045628017 0.018107735 0.11273594
0.059419084 0.017515058 0.11218863
0.062054731 0.017549695 0.11244714
-0.010307577 0.0208527 0.11342397
-0.0073990291 0.022374414 0.11241061
-0.0040231934 0.022730405 0.11247364
0.05972955 0.02183181 0.11202353
0.06240914 0.022482751 0.1124924
-0.0070536043 0.027230274 0.11242061
-0.00366085 0.027523296 0.11247085
0.062842645 0.027413242 0.11242209
0.0650637 0.028287113 0.11250438
-0.0066358531 0.032278925 0.11239558
-0.0032377569 0.032541465 0.11238509
0.062992387 0.03242851 0.11247189
0.065156668 0.033239443 0.11265711
-0.0060677165 0.03728598 0.11244547
-0.002616029 0.037517909 0.11253057
0.00010780006 0.038722783 0.11352458
0.063172676 0.037379023 0.11241102
0.065509327 0.037667051 0.1124654
-0.0055994107 0.042054947 0.11242069
-0.0024931645 0.042507194 0.11249172
0.00047696871 0.043219477 0.11253196
0.063283347 0.042425353 0.11244518
0.065669931 0.042468291 0.1125108
-0.0052043507 0.045820706 0.112464
-0.0024422216 0.047488272 0.11241473
0.0010016116 0.04780044 0.11245773
0.063566118 0.047409743 0.11242266
0.065914497 0.047572423 0.11254019
-0.0021318647 0.052494679 0.11238785
0.0013692246 0.052771747 0.11247765
0.063550502 0.052528746 0.1123457
0.065783441 0.052522961 0.11246103
-0.002033399 0.057175785 0.11245401
0.0019546847 0.057731606 0.11250664
0.054707237 0.059983686 0.11187253
0.058299478 0.059428848 0.11218152
0.06286788 0.057796102 0.11248359
0.065554544 0.056280248 0.11290915
-0.0020018041 0.061826076 0.11228048
0.0024937273 0.062490351 0.11241554
0.0056343116 0.063637987 0.1125477
0.032763779 0.064689599 0.11320227
0.037744258 0.064395688 0.11292413
0.042890787 0.063954398 0.11257432
0.047785196 0.063519076 0.11259434
0.052566178 0.06286566 0.11245369
0.05747766 0.062591463 0.11245133
0.061248738 0.061853766 0.11254515
0.0033697551 0.066709645 0.11247645
0.0074787224 0.06773068 0.11246525
0.012467481 0.068065047 0.11242633
0.017577821 0.068122074 0.11244426
0.022529235 0.067927301 0.112533
0.027479131 0.067707784 0.1124629
0.032464057 0.067686759 0.11247303
0.03741743 0.067287304 0.11244646
0.042420186 0.066729173 0.11243358
0.047370188 0.066222839 0.11249687
0.052592058 0.065892547 0.11249723
0.056691147 0.065838568 0.11259034
0.0083876587 0.071078971 0.11252003
0.012495948 0.071462378 0.11240757
0.017384229 0.071174443 0.11233972
0.022475092 0.070715733 0.11241877
0.027159546 0.07042449 0.11229081
0.031522743 0.070190251 0.11246696
-0.011017476 -0.095141053 0.11704975
-0.0073655616 -0.095278755 0.117736
-0.0021827687 -0.095395148 0.1174419
0.0028437988 -0.09551961 0.11751992
0.0078198146 -0.095918164 0.11749133
0.012644934 -0.096077435 0.11745566
0.017482718 -0.096353278 0.11746108
0.022574112 -0.096734136 0.11746319
0.027522931 -0.097250685 0.11746734
0.03242027 -0.09721905 0.11745464
0.036788713 -0.096280113 0.11750256
0.040495098 -0.095521592 0.11843697
-0.016406145 -0.091732524 0.11758777
-0.012415959 -0.092354782 0.11746556
-0.007562777 -0.092591897 0.11746433
-0.0025216946 -0.092798866 0.11744612
0.0024762945 -0.092988357 0.11750036
0.0075140009 -0.093277119 0.11749821
0.012364272 -0.093510017 0.11757363
0.017378164 -0.093750805 0.11769
0.022330979 -0.094033852 0.11757682
0.027294679 -0.094308384 0.11758802
0.032412533 -0.094435602 0.11749126
0.038135257 -0.092965312 0.11747601
0.041626576 -0.092105404 0.11754561
-0.020735854 -0.08646524 0.11734697
-0.017610418 -0.087642573 0.11745557
-0.012599309 -0.088703811 0.11741652
-0.0078098061 -0.089147337 0.11752696
-0.0033889429 -0.089663364 0.11799139
0.039397515 -0.087961942 0.11768495
0.04232318 -0.087504379 0.11754385
0.04570948 -0.086993009 0.11756909
-0.021519676 -0.082184561 0.1174586
-0.019191576 -0.08281152 0.11752202
0.039818123 -0.083271354 0.11683605
0.042714156 -0.082542047 0.1175241
0.045847408 -0.082453735 0.1175109
-0.021802962 -0.077516019 0.11743155
-0.018957593 -0.07724008 0.11758687
0.04318 -0.077664271 0.11753294
0.046086702 -0.077199444 0.1175439
-0.021456786 -0.072499946 0.11733313
-0.018485982 -0.072285056 0.11754318
0.043734279 -0.072713882 0.11756732
0.046579804 -0.072192498 0.11745133
-0.020857649 -0.067579068 0.11747802
-0.017919613 -0.067258492 0.11752723
-0.014648833 -0.065410376 0.11820322
0.044246748 -0.067743987 0.11748948
0.047157656 -0.067302115 0.11744729
-0.020518055 -0.062916592 0.1171884
-0.01767358 -0.062463321 0.11753459
-0.014767811 -0.062133357 0.11789631
0.044628765 -0.063328408 0.11743196
0.047624581 -0.062473442 0.11749302
0.050271034 -0.060962126 0.11771984
-0.02012136 -0.059143502 0.11627601
-0.017495582 -0.057661884 0.11746876
-0.014374905 -0.056920435 0.11779543
0.044984497 -0.059665713 0.11813434
0.047976207 -0.057561681 0.11744899
0.050797977 -0.05736224 0.11750699
-0.017284317 -0.05266498 0.11746293
-0.014113033 -0.052403014 0.11754584
0.048547912 -0.052654974 0.1175201
0.051390395 -0.052394081 0.11748697
-0.016934708 -0.047615737 0.11743788
-0.013603088 -0.047471926 0.11749478
0.048886772 -0.04778634 0.11742141
0.051870424 -0.047389902 0.11745698
-0.016637297 -0.042671002 0.11748251
-0.013141786 -0.042424601 0.11753356
0.049434032 -0.042935614 0.11721971
0.052504525 -0.042433459 0.11749461
0.055040527 -0.041790687 0.11926003
-0.016364144 -0.037626941 0.11748765
-0.012914527 -0.037389491 0.11753708
0.04980161 -0.038852911 0.11684033
0.052824851 -0.03755999 0.11746762
0.055375151 -0.036634512 0.11753711
-0.016114747 -0.032470454 0.11737833
-0.012605121 -0.032443244 0.11750571
-0.0097164083 -0.031927764 0.11807888
0.053233977 -0.032521829 0.1174764
0.055832013 -0.032268699 0.11762547
-0.015816655 -0.027523382 0.11750589
-0.012554112 -0.027409634 0.11747525
-0.0094760228 -0.027054708 0.1175905
0.053792853 -0.027592074 0.11751408
0.056341767 -0.027225018 0.11751923
-0.015373658 -0.022811474 0.11736818
-0.012398645 -0.022477945 0.1174524
-0.00922231 -0.022262666 0.11749711
0.054109801 -0.022586681 0.11770535
0.05670473 -0.022394145 0.11748955
-0.015190748 -0.01914666 0.1174975
-0.012371275 -0.017693495 0.11746409
-0.0089618359 -0.017414773 0.11756615
0.054407626 -0.017926609 0.11764718
0.05728158 -0.017414635 0.11754794
-0.012005078 -0.012686333 0.11734448
-0.0086490363 -0.012510885 0.11749354
0.054737326 -0.01307903 0.11775805
0.057531048 -0.012466907 0.11742184
0.06002064 -0.010769908 0.11947763
-0.011789701 -0.0077128378 0.11740378
-0.0084429653 -0.0075636772 0.11750962
0.054999758 -0.0090559572 0.11771262
0.057722136 -0.0076651219 0.11750156
