# .PCD v0.7 - Point Cloud Data file format
VERSION 0.7
FIELDS x y z
SIZE 4 4 4
TYPE F F F
COUNT 1 1 1
WIDTH 1300
HEIGHT 1
VIEWPOINT 0 0 0 1 0 0 0
POINTS 1300
DATA ascii
-0.055345081 0.035824705 0.048993997
-0.053204041 0.037587058 0.047578551
-0.049995281 0.039400268 0.045296896
0.064279214 0.038242638 0.046446908
0.065970175 0.037015289 0.048012964
-0.051297903 0.041907996 0.047925629
-0.048833709 0.043630566 0.046956833
0.059984766 0.044652428 0.045089033
0.063327238 0.042814214 0.04746706
0.06537161 0.041315403 0.049082521
-0.050322369 0.045475096 0.04865415
-0.047111001 0.047255404 0.047714859
-0.043979045 0.04885881 0.046929669
0.058933679 0.048712853 0.047230277
0.061490744 0.04719878 0.047797382
-0.045576371 0.050699089 0.048541889
-0.042273156 0.052352365 0.047622807
-0.038916338 0.054099008 0.047276028
0.054084659 0.054074969 0.047123935
0.057273712 0.052151196 0.047653969
0.06052988 0.050707191 0.048562739
-0.040522646 0.055809874 0.048731618
-0.037159894 0.057132244 0.047593564
-0.033630837 0.058842491 0.047176261
0.048656378 0.058928281 0.04717771
0.052283727 0.057118241 0.047712076
0.05577603 0.055794694 0.048226915
-0.035563428 0.060310945 0.048428606
-0.03193257 0.061734632 0.047888923
-0.028228143 0.063482434 0.047310784
-0.024527052 0.064680137 0.046354055
0.039624758 0.064691775 0.046869967
0.043305364 0.063632712 0.047393326
0.046872139 0.061653707 0.047778044
0.050218269 0.06067555 0.048575249
-0.030563012 0.065128729 0.049844284
-0.026560234 0.066087812 0.048037328
-0.022678105 0.067847818 0.047590714
-0.018509891 0.069255851 0.046961486
-0.014275978 0.06979797 0.045438062
0.028585639 0.069632068 0.046662424
0.033093035 0.068986848 0.047208827
0.037533246 0.067584164 0.047681551
0.041572619 0.065928645 0.047945861
-0.02075487 0.070460618 0.048923075
-0.017149542 0.071112089 0.047933873
-0.012513299 0.072499938 0.047578216
-0.0075582191 0.073538907 0.0474572
-0.0025893296 0.073817052 0.047276072
0.0024844406 0.073907487 0.047299355
0.0075854231 0.073827431 0.04729905
0.012645165 0.073473237 0.047449317
0.017562043 0.073082611 0.047549929
0.022478353 0.072535962 0.047674295
0.027327448 0.071650818 0.047727741
0.031807013 0.07070224 0.048087988
0.035921324 0.070164822 0.049216665
-0.010891872 0.075331889 0.049506154
-0.0072074556 0.075526632 0.048763972
-0.0024415918 0.075525001 0.048371028
0.0023587362 0.075480759 0.048417494
0.0073155873 0.075460024 0.048767325
0.012338742 0.075257286 0.049145263
0.016446691 0.075206831 0.049307197
0.020252744 0.075212926 0.049257342
-0.0025367525 -0.055268016 0.053887971
0.0025396387 -0.055362731 0.053249653
0.0077456185 -0.055390682 0.05252029
0.011572329 -0.055156805 0.052724339
-0.016512541 -0.050634954 0.053223368
-0.012338964 -0.051337112 0.052766092
-0.0075899255 -0.052334998 0.052572362
-0.0025475281 -0.053408377 0.052581154
0.0025819107 -0.053639602 0.052538693
0.0075955838 -0.053680159 0.052507956
0.012605691 -0.0531369 0.052475587
0.01748414 -0.052221924 0.052518383
0.02218806 -0.05123774 0.052636217
0.026577609 -0.050672457 0.052724544
0.030888297 -0.050384026 0.05396362
-0.026472714 -0.045947615 0.053218462
-0.022396103 -0.047234729 0.052730676
-0.017847996 -0.048827924 0.052427009
-0.013540746 -0.049544193 0.051761039
-0.0098614451 -0.049961898 0.051024798
0.018654848 -0.049822669 0.05144814
0.022982165 -0.04937353 0.052363615
0.027673243 -0.048636217 0.052517228
0.032328978 -0.047299299 0.052603416
0.036766551 -0.045984294 0.052713983
0.041094478 -0.045168951 0.054439947
-0.035816252 -0.040614683 0.053062815
-0.032317258 -0.041984767 0.05268351
-0.028006019 -0.043845445 0.052235108
-0.024141338 -0.04453719 0.051025383
0.034400634 -0.044774879 0.052427974
0.038192887 -0.044019386 0.052339546
0.042487763 -0.042353258 0.052470304
0.046279758 -0.040933006 0.0529253
-0.041131329 -0.03604963 0.053180549
-0.037751041 -0.037876148 0.052528385
-0.033926129 -0.039418511 0.051384687
0.044543415 -0.039672423 0.051144648
0.048021473 -0.038010728 0.052509703
0.051450908 -0.036170155 0.05299148
-0.045778774 -0.031028533 0.053307898
-0.04290973 -0.032773394 0.052570928
-0.039353669 -0.034479145 0.051344801
0.049526315 -0.034483947 0.051228464
0.053041581 -0.0328889 0.052526221
0.055968333 -0.031186162 0.052879151
-0.050405443 -0.025337916 0.053977143
-0.04728701 -0.027235286 0.052638505
-0.044421822 -0.029323563 0.051938891
0.054554991 -0.028981002 0.05204846
0.057577275 -0.027525183 0.052695129
0.060738433 -0.025747268 0.053703472
-0.051297277 -0.021841278 0.052926887
-0.049004022 -0.023055103 0.052318718
0.059115328 -0.023461234 0.052261606
0.061607447 -0.022124914 0.052678451
-0.055323485 -0.015879303 0.052810952
-0.052590717 -0.017630992 0.052622471
-0.04971417 -0.019265713 0.051950164
0.063444607 -0.018026143 0.052348923
0.065727614 -0.016537512 0.053164963
-0.056052573 -0.011938815 0.053117838
-0.053891964 -0.013192532 0.052216589
0.064451069 -0.014257383 0.051732119
0.067121424 -0.012510199 0.052701212
0.070288442 -0.010326077 0.054345127
-0.057051767 -0.0075631733 0.052492354
-0.054374564 -0.0092203077 0.050882202
0.068711162 -0.0077368501 0.052437041
0.07038977 -0.006629291 0.053431928
-0.060346883 -0.001705104 0.053901672
-0.058538288 -0.0026973563 0.0524978
0.069364235 -0.0032506881 0.052110221
0.070971347 -0.0023508249 0.052797209
-0.060509358 0.0030585115 0.053444538
-0.059184626 0.0022026673 0.052075587
0.069804788 0.00087860168 0.05115087
0.071649253 0.0025489687 0.052570563
-0.060595568 0.0076411786 0.053043157
-0.059317194 0.0075686574 0.052176345
0.071878925 0.0076254774 0.052576561
-0.060592405 0.012547455 0.053315938
-0.059341375 0.012674854 0.052252442
0.069772288 0.013842117 0.051102608
0.071809247 0.012609166 0.052606475
-0.060568582 0.017123727 0.053233869
-0.059041452 0.017722279 0.052557588
0.069516629 0.018219693 0.051898666
0.07142733 0.01744695 0.052622341
-0.060319897 0.021080682 0.052808218
-0.058408387 0.022349024 0.052658517
0.069034316 0.022655958 0.052309379
0.070843264 0.022330221 0.052756928
-0.057339091 0.027380912 0.052619789
0.068841927 0.027584102 0.052241329
0.070449606 0.026673844 0.053233054
-0.056478176 0.032224379 0.052721385
-0.054729674 0.034180354 0.052178051
0.068196669 0.032450687 0.052484296
0.070156828 0.031277131 0.054445159
-0.05563204 0.036374699 0.053002384
-0.054086063 0.037934765 0.052384637
0.064581379 0.039316576 0.050897092
0.067117229 0.037525844 0.052729122
-0.05503238 0.041263677 0.054865297
-0.052260105 0.042489853 0.052566767
-0.049595159 0.044240389 0.051312711
0.063911721 0.043313317 0.052281212
0.065928183 0.041857839 0.052987535
-0.050834388 0.04605959 0.053175438
-0.048163097 0.047973145 0.052353725
-0.04434935 0.049575251 0.050962362
0.059438378 0.049117178 0.052341145
0.062079631 0.047404174 0.052674647
0.065167576 0.0459572 0.053862981
-0.046231184 0.051282428 0.053051595
-0.042984802 0.053058326 0.052268513
-0.039426427 0.054261804 0.051163979
0.054430075 0.054503236 0.05219432
0.057610773 0.05260754 0.052634113
0.060856927 0.050873645 0.052677371
-0.041133177 0.056267869 0.053125814
-0.037891347 0.057871968 0.052489281
-0.034156106 0.05920345 0.051575601
0.049330559 0.059261635 0.052104805
0.052563686 0.057665017 0.052669398
0.056197874 0.05597885 0.052499123
-0.036146071 0.061072152 0.053159993
-0.032533936 0.062575847 0.052525952
-0.028777314 0.064142384 0.052043643
0.043754965 0.063975349 0.052323349
0.047482356 0.062263284 0.052600499
0.050918605 0.06067678 0.053355563
-0.03076585 0.065595597 0.053352136
-0.027213916 0.066907883 0.052661531
-0.023070853 0.068665013 0.052431036
-0.019184569 0.069620244 0.0519269
0.029806096 0.069881879 0.050204318
0.033643398 0.06928952 0.052046131
0.037852 0.068292819 0.052395072
0.041980427 0.066373095 0.052762769
0.045509122 0.065339133 0.053586796
-0.025530735 0.070426092 0.054490149
-0.021499394 0.07084094 0.053098455
-0.017382558 0.071972817 0.052554063
-0.012606799 0.073419683 0.052478299
-0.0077252942 0.073991977 0.052314069
-0.0026878787 0.074308448 0.052189481
0.002469216 0.074418828 0.051808544
0.0075784051 0.074469946 0.051916156
0.012810067 0.074344136 0.052015316
0.017739797 0.074027084 0.052235458
0.022604108 0.073579922 0.052364305
0.027419051 0.072596014 0.052568037
0.032172333 0.071406677 0.052729607
0.036278512 0.070494682 0.053200837
-0.01146423 0.075367026 0.053030193
-0.0071432111 0.0756929 0.052898794
-0.0024637261 0.075855888 0.052739058
0.0025621061 0.075965904 0.052762132
0.0075190924 0.075998172 0.052821387
0.012451957 0.075820699 0.052969597
0.017388312 0.07558696 0.053171962
0.021786468 0.075307198 0.053497985
0.025021568 0.075436719 0.05391001
-0.0060030506 -0.055281918 0.058368262
-0.002056398 -0.055494819 0.057151072
0.0025489121 -0.055440087 0.057542052
0.0070025059 -0.055434287 0.057548668
0.011731674 -0.055307362 0.058035523
0.015458705 -0.0551272 0.057670593
-0.021154324 -0.050401967 0.059058543
-0.017070351 -0.050915461 0.057710856
-0.012497458 -0.05180772 0.057569038
-0.0076351939 -0.052973405 0.057619441
-0.0025701146 -0.053709358 0.057669155
0.0025149728 -0.05388834 0.057582688
0.0075706993 -0.053943302 0.057548191
0.012610388 -0.053560432 0.057528555
0.017623255 -0.052763704 0.057548743
0.022410912 -0.051640604 0.057577997
0.02706893 -0.051013336 0.057598669
0.030895101 -0.050356582 0.05809921
-0.030289417 -0.045351982 0.057982624
-0.026934883 -0.046369921 0.057682239
-0.022601077 -0.048066135 0.057637185
-0.018115487 -0.049325939 0.057529371
-0.014321892 -0.049915399 0.057893835
0.023630857 -0.049643721 0.057459991
0.027795702 -0.049071155 0.057183981
0.032344513 -0.048101589 0.05733785
0.037106872 -0.046440233 0.057745606
0.040539775 -0.045513868 0.057576425
-0.036058325 -0.040871859 0.057575446
-0.03241048 -0.042625517 0.057513747
-0.028455202 -0.044194743 0.057515856
0.038623292 -0.044197205 0.05707236
0.042692348 -0.042733047 0.057365626
0.046456065 -0.040983371 0.057586607
0.050076105 -0.04004658 0.059519067
-0.041374065 -0.036162935 0.057737216
-0.038063589 -0.038228013 0.057598516
-0.034577213 -0.039752383 0.057670124
0.0447152 -0.039700177 0.057367515
0.048293926 -0.038243007 0.057499055
0.051893905 -0.036635675 0.05752318
-0.046076406 -0.0311889 0.057717752
-0.043183826 -0.032918353 0.057828303
-0.039883219 -0.03493521 0.056155253
0.053473607 -0.033136606 0.057392124
0.05651753 -0.031757187 0.057471316
-0.050500643 -0.025787931 0.057910156
-0.04773536 -0.027435137 0.057596792
-0.044640489 -0.029191827 0.057633642
0.054772586 -0.029692898 0.057109926
0.058053043 -0.027848028 0.057537731
0.060807288 -0.026267793 0.057707109
-0.051633041 -0.022113269 0.057529423
-0.049138494 -0.023744781 0.057341319
0.059349325 -0.023982082 0.057061817
0.062318835 -0.022457575 0.057496715
0.065377623 -0.020832047 0.058326822
-0.055708639 -0.016091477 0.058119915
-0.053380728 -0.017933138 0.057365634
0.063928142 -0.018320179 0.057474431
0.066134803 -0.017081985 0.057708185
-0.056589302 -0.012420571 0.057564836
-0.054641582 -0.013987375 0.057009995
0.064618811 -0.014607975 0.055653878
0.067692079 -0.012572168 0.057667583
0.070361584 -0.010607281 0.058020338
-0.060245115 -0.0055197203 0.058619417
-0.058240309 -0.0075895661 0.057490975
0.068937317 -0.0079700304 0.057508536
0.070762396 -0.0071316343 0.057767965
-0.06064989 -0.0021005461 0.057603899
-0.059195213 -0.0028375804 0.057416134
0.069498144 -0.0034994709 0.057604849
0.071487881 -0.0023288794 0.057658739
-0.060719032 0.0026287283 0.057583079
-0.059455171 0.0023817676 0.057613563
0.072271451 0.0024580127 0.057579014
-0.060938552 0.0076097255 0.057618544
-0.059501424 0.0075786677 0.057781756
0.072645068 0.0075946301 0.057433721
0.075000942 0.0094262538 0.057457872
-0.060888313 0.012509961 0.057606936
-0.059326559 0.012633123 0.057822376
0.072673388 0.012531193 0.057419904
-0.06058234 0.017345984 0.057521395
-0.058990579 0.017679701 0.057533834
0.069766872 0.018495727 0.055468805
0.072157763 0.017445626 0.05750424
-0.060354315 0.021240456 0.058180682
-0.058724131 0.022507248 0.057496168
0.069555387 0.022653457 0.055965077
0.071512677 0.022386312 0.057507981
-0.057852749 0.027468458 0.057596147
0.069433607 0.027774388 0.056751952
0.07108666 0.027334504 0.057725303
-0.056827169 0.032323536 0.057516456
-0.054816209 0.033998184 0.05725529
0.069036491 0.032927807 0.057454824
0.070542932 0.031978741 0.057915855
-0.05612772 0.036967129 0.057697129
-0.05417604 0.038196374 0.057465125
0.067975253 0.037590504 0.057528235
0.070300043 0.035406075 0.058587071
-0.055566333 0.040914245 0.058108032
-0.052948318 0.042595372 0.05750208
-0.049939614 0.04498259 0.055355158
0.064001352 0.043725837 0.057528187
0.066315904 0.042083699 0.057665765
-0.051086515 0.046595193 0.057744283
-0.048821844 0.048545875 0.057560775
0.059456065 0.049447931 0.056496546
0.062461391 0.047648907 0.057612326
0.065277681 0.046016805 0.058156405
-0.046796456 0.052065294 0.057722375
-0.043831725 0.05390057 0.057020776
0.054557361 0.054446645 0.05694741
0.057848193 0.05282506 0.057608426
0.060979173 0.051241543 0.057764992
-0.045324787 0.055638723 0.05875019
-0.042122971 0.056915119 0.057809129
-0.038407128 0.058716677 0.05715391
-0.03432034 0.059906237 0.055904895
0.049572401 0.059595689 0.057232704
0.053113218 0.058004227 0.057526577
0.056359772 0.056315444 0.057803657
-0.040284317 0.060658563 0.059570067
-0.036891807 0.061715864 0.057721265
-0.033135287 0.063360766 0.057207555
-0.029239858 0.064446233 0.05708519
0.043945957 0.06427227 0.057214424
0.047865547 0.062776022 0.057458796
0.05148178 0.061007224 0.057802595
-0.035366952 0.065192409 0.057595417
-0.031627059 0.066099755 0.057838663
-0.027429389 0.067756079 0.057467278
-0.023112904 0.068967707 0.057425257
-0.018867405 0.06984929 0.056682404
0.033898853 0.069627531 0.05652893
0.038064353 0.068721287 0.057425108
0.042350978 0.066930011 0.057596248
0.046143059 0.065442696 0.057853702
-0.025848923 0.070471071 0.0582061
-0.022163592 0.071335591 0.057653196
-0.017533148 0.072556399 0.057516865
-0.012908653 0.073730208 0.057550922
-0.0080141034 0.074357919 0.057443902
-0.0030345723 0.074664801 0.056939982
0.0017064664 0.074812613 0.055565748
0.0052971337 0.074900523 0.056146603
0.013458986 0.074792452 0.056286279
0.01829516 0.074488059 0.056933045
0.022916662 0.074003935 0.057234939
0.027516345 0.073418021 0.057454001
0.0324433 0.072021656 0.057546794
0.036478698 0.070846342 0.057647299
-0.015672935 0.07508342 0.058190085
-0.011651812 0.075573534 0.057676122
-0.0073760767 0.076009557 0.057688694
-0.0025498634 0.076406918 0.057776999
0.0024562001 0.076711275 0.057607122
0.0075889323 0.076773643 0.057583354
0.012605884 0.076525584 0.057671394
0.017488623 0.07619296 0.057725348
0.022305831 0.07576213 0.057813931
0.02629767 0.075401902 0.058616929
-0.0064249011 -0.055194084 0.061856277
-0.0016412536 -0.055370271 0.063065648
0.0027179185 -0.055424388 0.062652871
0.0072552436 -0.05531799 0.062727615
0.012527209 -0.055358436 0.063037127
0.016134648 -0.055071302 0.063850477
-0.021212708 -0.05056246 0.062755406
-0.017184988 -0.051189076 0.062457319
-0.012509415 -0.052027144 0.062481117
-0.0077011916 -0.053097416 0.062521257
-0.0026165759 -0.053678516 0.062536053
0.0024073236 -0.053800113 0.062482905
0.007680662 -0.053754687 0.062515087
0.012636444 -0.053683039 0.062459968
0.017608089 -0.053109381 0.062454816
0.022458546 -0.052035078 0.06252946
0.027152454 -0.051309608 0.062527701
0.031157395 -0.050582733 0.062748834
-0.030625138 -0.045664556 0.06283015
-0.027094638 -0.046686634 0.062579297
-0.022694541 -0.048339184 0.062412985
-0.018092006 -0.049346443 0.062640071
-0.014051862 -0.049839269 0.062666185
0.023802878 -0.049808241 0.062413089
0.027926017 -0.04934521 0.062465448
0.032575019 -0.048750181 0.062574044
0.037284579 -0.046959091 0.062614389
0.040861532 -0.045776188 0.062984049
-0.03625036 -0.041243412 0.062619746
-0.03260421 -0.042738121 0.062514767
-0.028653875 -0.044250719 0.0626707
0.039332855 -0.044619054 0.062249824
0.042883445 -0.043132666 0.062450945
0.046704721 -0.041126076 0.062670462
0.050168507 -0.040274072 0.062287003
-0.041379996 -0.036374547 0.062458307
-0.038108315 -0.038079556 0.062546745
-0.034485336 -0.039712552 0.062927634
0.048373375 -0.038659863 0.062441647
0.052089836 -0.036737237 0.062454101
0.055216961 -0.03565843 0.063772015
-0.046240073 -0.031262133 0.062499862
-0.043093283 -0.032904103 0.062599584
-0.039564658 -0.034740619 0.062868424
0.053909875 -0.033510815 0.062425829
0.056903876 -0.031909745 0.062572889
-0.050591741 -0.025889818 0.062470444
-0.047709066 -0.027572745 0.062476683
-0.044419222 -0.029239064 0.062642813
0.05852811 -0.028033759 0.062396657
0.06117551 -0.026517963 0.062564291
-0.055213656 -0.020216791 0.062880866
-0.052032776 -0.022321973 0.062474634
-0.049078487 -0.023931438 0.06250377
0.059547771 -0.024315929 0.061257493
0.062710822 -0.022534857 0.062410612
0.065588772 -0.020943198 0.062701166
-0.056008805 -0.016763229 0.062643103
-0.053585559 -0.018022714 0.062470645
0.064045064 -0.018526135 0.062317371
0.066403404 -0.017257417 0.062560387
-0.06030041 -0.010886065 0.062709942
-0.056796759 -0.012508567 0.062532574
-0.05455197 -0.013613767 0.062805422
0.067998655 -0.01265802 0.062512375
0.070323922 -0.011084964 0.063007429
-0.060272843 -0.0061378404 0.061168022
-0.058074594 -0.007676403 0.062585592
0.06891983 -0.0080395583 0.062290743
0.070900522 -0.0073134471 0.062591471
-0.060424514 -0.0017436602 0.062477157
-0.058762908 -0.0027092313 0.062635362
0.06951765 -0.0036733372 0.062497161
0.071549788 -0.0023831173 0.062456962
-0.06076885 0.0026287183 0.062549904
-0.058877628 0.002545876 0.062697895
0.072581463 0.0025047155 0.062400628
-0.060929175 0.0076407557 0.062432092
-0.059039362 0.007573423 0.062661387
0.073008604 0.0075216666 0.062413316
0.07512974 0.0087529048 0.064176291
-0.060837291 0.01254047 0.062461268
-0.059010662 0.012508088 0.062473021
0.073204488 0.012639118 0.062394056
0.075081415 0.012577434 0.063909374
-0.060755067 0.017491013 0.062619932
-0.059001971 0.017591028 0.062369343
0.073034912 0.017661246 0.06250383
-0.060356282 0.021959675 0.062720165
-0.05869212 0.022641275 0.062426221
0.072472952 0.022502905 0.0624713
-0.060232174 0.026133552 0.063874617
-0.058222067 0.027436649 0.062343508
0.069725432 0.028819634 0.063110992
0.071532845 0.027406448 0.062512711
-0.057099953 0.03239559 0.062377341
-0.054812141 0.034124833 0.061931062
0.069159426 0.033063702 0.062534176
0.070795745 0.03185134 0.062465657
-0.056173559 0.037092503 0.06239019
-0.054258667 0.038215447 0.062310364
0.06798213 0.037535235 0.062605567
0.070215546 0.035750974 0.06227817
-0.055647384 0.040716399 0.062905274
-0.05292451 0.042579617 0.062503092
-0.049824387 0.044410359 0.062196758
0.064025924 0.043605644 0.062856995
0.066369168 0.042102303 0.062505886
-0.051215578 0.046669532 0.06255772
-0.048945248 0.048424035 0.062586702
0.059428111 0.04929214 0.063031286
0.062501781 0.047583692 0.062560752
0.06534858 0.045813374 0.062689543
-0.047064405 0.052229267 0.062526815
-0.044317089 0.054133318 0.062671103
0.054868769 0.054555517 0.061641872
0.058072735 0.052957837 0.062594637
0.06095054 0.051222228 0.06259688
-0.045782436 0.055639971 0.062377904
-0.042369779 0.057385299 0.062490627
-0.03904577 0.05916426 0.062161613
0.049769223 0.059776962 0.064292312
0.053339805 0.058226049 0.062469393
0.056572564 0.056481574 0.062492166
-0.040547583 0.060636193 0.062770873
-0.03719775 0.062143069 0.062501758
-0.033304572 0.063788965 0.062226117
-0.029779334 0.064909592 0.062415086
0.044186667 0.064415738 0.062745519
0.047959458 0.063105047 0.062468555
0.051581264 0.061232813 0.062616251
-0.035167325 0.065294117 0.062527552
-0.032022942 0.066307321 0.062340144
-0.027555835 0.068067208 0.062443838
-0.022959411 0.068922587 0.062674902
-0.018803446 0.069574662 0.06304875
0.034355395 0.06976302 0.062510304
0.038307212 0.068794608 0.062566452
0.042422093 0.06720563 0.062483191
0.046148088 0.065768175 0.062490299
-0.025893766 0.070432782 0.062298536
-0.022188934 0.071479335 0.062390935
-0.017535381 0.072578833 0.062486481
-0.012970927 0.073588207 0.062556274
-0.0082018534 0.074356332 0.062600806
-0.0037576556 0.074785419 0.063083
0.01477702 0.074910253 0.060138274
0.018517449 0.074709162 0.062463373
0.022896301 0.07430777 0.062361974
0.027726179 0.073676966 0.062537469
0.032458898 0.072315983 0.062471613
0.036867648 0.071026392 0.062572926
0.040203467 0.070484012 0.062754497
-0.016194249 0.075390115 0.062408846
-0.012192324 0.07571888 0.062541738
-0.0074639097 0.076222785 0.062452029
-0.0025090927 0.076791413 0.062536336
0.002498253 0.077297121 0.062551633
0.0076061292 0.077403858 0.062563822
0.012616795 0.077128038 0.062572621
0.017511256 0.076604344 0.062442169
0.022288239 0.076158211 0.062529519
0.026500432 0.075534932 0.062701941
0.0303028 0.075043634 0.06273368
-0.0065802159 -0.05511691 0.067858294
-0.0012018967 -0.055400643 0.067158505
0.0026617316 -0.055333588 0.067381889
0.0073490492 -0.055392481 0.067457311
0.012300245 -0.055373006 0.067256205
0.016136719 -0.055351626 0.067717522
-0.021253297 -0.050636359 0.067272894
-0.017162198 -0.051305942 0.067302905
-0.012490953 -0.051976841 0.067431934
-0.0075114495 -0.05273553 0.06750042
-0.0025414939 -0.053300057 0.067559548
0.0024739327 -0.053384021 0.067551278
0.0075828531 -0.053516287 0.067516737
0.012655369 -0.053471651 0.067519203
0.017575728 -0.053034384 0.06746012
0.022346176 -0.052189652 0.067424022
0.027153376 -0.051392399 0.067424431
0.030988829 -0.050684135 0.067578003
-0.030834805 -0.045823358 0.067415491
-0.027190147 -0.046700932 0.067412317
-0.022684999 -0.048198976 0.067502342
-0.018061453 -0.049200084 0.067651592
-0.013384423 -0.049650215 0.068437234
-0.0091262357 -0.049992219 0.06906414
0.023940573 -0.04981092 0.068221167
0.027956987 -0.049383018 0.067406513
0.03274304 -0.048435528 0.067539513
0.037254076 -0.046893988 0.067450985
0.041011181 -0.045760062 0.067275211
-0.036292382 -0.041286908 0.067299224
-0.032550905 -0.042669889 0.067358807
-0.028446138 -0.044061497 0.067844503
0.038813241 -0.044578429 0.068279736
0.042878069 -0.043325413 0.067633316
0.046724517 -0.041402429 0.06742695
-0.041454572 -0.036256593 0.067311548
-0.037793066 -0.037882555 0.067503475
-0.034285493 -0.039271463 0.067847021
0.04844806 -0.038676515 0.067731716
0.052073039 -0.036764804 0.067491993
0.055100873 -0.035721865 0.066908225
-0.046262406 -0.031193532 0.06733644
-0.042908732 -0.032749709 0.06750264
-0.039180987 -0.034099963 0.068496443
0.053798728 -0.03350364 0.067573339
0.057083387 -0.03186233 0.067335941
-0.050679754 -0.025948802 0.067473181
-0.047700915 -0.027535588 0.067364037
-0.044382587 -0.029170671 0.067407347
0.058437373 -0.028086405 0.067475773
0.061201748 -0.026865857 0.067341238
-0.055248581 -0.020470241 0.067268752
-0.052151762 -0.022248449 0.067332484
-0.049198885 -0.023572879 0.067465886
0.059757788 -0.024333892 0.067861296
0.06274572 -0.022745468 0.067498885
0.065742254 -0.021267941 0.067627341
-0.055956282 -0.017044263 0.067284517
-0.053476736 -0.017846944 0.067527868
0.064242125 -0.018841092 0.067311376
0.066711672 -0.017308334 0.067603067
-0.056795102 -0.012370788 0.067463152
-0.054366052 -0.013239659 0.067939319
0.068218537 -0.012754115 0.067456104
0.070438601 -0.011572245 0.067821532
-0.060314298 -0.0059024282 0.067383729
-0.057613958 -0.0075457357 0.067557395
-0.054659761 -0.0086517744 0.068992198
0.069203869 -0.0080886148 0.067492887
0.070973173 -0.0071674963 0.067417465
-0.060448799 -0.0020163399 0.067265593
-0.058095492 -0.0026933169 0.067534357
0.069629662 -0.0040560532 0.067684822
0.071606778 -0.0024647051 0.067455262
-0.060632538 0.0026317283 0.06718982
-0.058350027 0.0025268195 0.067628384
0.072593808 0.0025604705 0.067462534
-0.060815908 0.0075359037 0.067350253
-0.058675643 0.007520867 0.067492545
0.073216155 0.0075031104 0.067558274
0.075130254 0.0077644503 0.067240939
-0.060901593 0.012504227 0.067501158
-0.058916405 0.012650823 0.06744691
0.073333234 0.012543839 0.067366742
0.07522089 0.012576377 0.067591496
-0.060768478 0.017528264 0.067384511
-0.05896464 0.017565086 0.067544438
0.073232219 0.017621741 0.067547023
0.07504344 0.016498005 0.068851724
-0.060460549 0.02212356 0.067445427
-0.058768675 0.022585798 0.067559645
0.072631605 0.022582017 0.067508847
-0.060125623 0.026598945 0.067861803
-0.058333632 0.027479764 0.067415871
0.069400094 0.028584318 0.067830548
0.071542889 0.027302984 0.067419767
-0.057074483 0.032386497 0.067425407
-0.054805651 0.034398112 0.06809026
0.068670087 0.03281562 0.06768167
0.070744678 0.031956658 0.067360811
-0.056045096 0.037084259 0.067255661
-0.054029584 0.038093794 0.067640677
0.064267851 0.039081883 0.068728872
0.067452878 0.037519757 0.067579962
0.070109501 0.035330236 0.06713593
-0.055470593 0.040604401 0.066958368
-0.052788168 0.042500895 0.067442194
-0.049528278 0.044326723 0.068963997
0.06362702 0.043053959 0.067720093
0.066236749 0.041932434 0.067331634
-0.051206462 0.046699326 0.067277774
-0.04882979 0.048191391 0.067582317
0.059311096 0.049160376 0.068047293
0.062183119 0.047469277 0.067391723
0.065306827 0.045655005 0.066539302
-0.050075743 0.050304018 0.066664428
-0.046887007 0.052214392 0.067458138
-0.044123359 0.053912029 0.067824148
0.054648828 0.054817382 0.067448236
0.058014277 0.053017423 0.067440756
0.060782313 0.051338267 0.067265891
-0.045715772 0.055380084 0.067748033
-0.042398032 0.05744781 0.067428574
-0.039041914 0.059213202 0.067694068
0.049324907 0.059578173 0.068611756
0.053224981 0.05825495 0.06743563
0.056313496 0.056557715 0.067418829
-0.040689517 0.060610257 0.067426585
-0.037316557 0.062217336 0.067469485
-0.033586219 0.063861132 0.067245923
0.044001672 0.064288363 0.067829028
0.047923014 0.062982745 0.067522198
0.051556122 0.061353572 0.067384914
-0.035453945 0.06543915 0.0668993
-0.032112177 0.066315427 0.067405716
-0.027614139 0.068200804 0.067444362
-0.022693602 0.068906255 0.06730105
-0.018401967 0.069404364 0.067441694
0.034213483 0.069455713 0.067738876
0.038043361 0.068644516 0.067509227
0.042441983 0.067308955 0.067469716
0.046089698 0.065820053 0.067401968
-0.025649335 0.070526414 0.067557693
-0.022212286 0.071421154 0.067333147
-0.017454006 0.072401561 0.067423165
-0.012799162 0.073179089 0.067526892
-0.0080072042 0.074064434 0.067740723
-0.0030497746 0.074653156 0.067893021
0.018809825 0.074777633 0.067308247
0.022944584 0.07420022 0.067547478
0.027659498 0.073571183 0.067457557
0.032317217 0.072291657 0.067413166
0.036985766 0.070976317 0.067403756
0.040903125 0.070245676 0.067105703
-0.015884368 0.075298056 0.067021906
-0.012205143 0.075647213 0.067248441
-0.0074187787 0.076192036 0.067404188
-0.0025654191 0.07682053 0.067459382
0.0025347078 0.077326261 0.067507364
0.0076001524 0.077665932 0.06755174
0.012630753 0.077397503 0.067488484
0.017525673 0.076861247 0.067430109
0.022253739 0.076151907 0.06736815
0.026670203 0.075564124 0.067254037
-0.0061053457 -0.055033945 0.072319485
-0.001755195 -0.055088442 0.072263233
0.0029333432 -0.055315845 0.071997046
0.0074590757 -0.055402242 0.071596079
0.012381471 -0.055428945 0.071832068
0.016568244 -0.055345908 0.073785804
-0.021227328 -0.050516628 0.07234969
-0.017244328 -0.051154986 0.072366096
-0.012461083 -0.051744539 0.072361998
-0.0075260033 -0.052263454 0.072400264
-0.0025567305 -0.052559111 0.072477616
0.0025167628 -0.05283922 0.072504796
0.0075394372 -0.052932139 0.072561398
0.012588883 -0.052932963 0.072453104
0.017460767 -0.052648161 0.072471537
0.022363573 -0.052046955 0.072451569
0.027132936 -0.051471181 0.072326861
0.031099895 -0.050736535 0.072375059
-0.030736752 -0.045586292 0.072257884
-0.027096514 -0.046595041 0.072345778
-0.022537652 -0.04776017 0.072530553
-0.017674442 -0.048784465 0.072559237
-0.012930355 -0.049238272 0.072787285
-0.0080668749 -0.049535193 0.073199883
-0.0029892609 -0.049761239 0.073938087
0.013002113 -0.049876008 0.074719027
0.018779116 -0.049707234 0.074030407
0.023169352 -0.049651723 0.073281363
0.027724521 -0.049066041 0.072751306
0.032587022 -0.048131328 0.072556742
0.036974452 -0.046732754 0.072395943
0.040827349 -0.045542922 0.071944311
-0.036215823 -0.041078355 0.07230331
-0.032300845 -0.042373102 0.072410569
-0.027932148 -0.04354763 0.072731897
-0.024130045 -0.044563431 0.073393784
0.034845997 -0.044636998 0.074997216
0.038285259 -0.044047676 0.072945625
0.042619113 -0.042663857 0.072557725
0.046568856 -0.041153353 0.072198085
-0.041277222 -0.036203053 0.072309688
-0.037528448 -0.037513744 0.072418779
-0.033580758 -0.038770135 0.072810568
0.044032373 -0.039504409 0.073483549
0.048088387 -0.038117245 0.072718203
0.051774647 -0.036431894 0.072240211
0.055333663 -0.035064936 0.072127596
-0.046140607 -0.03113755 0.072330058
-0.042644832 -0.032527268 0.072429694
-0.038628336 -0.033860546 0.072784685
0.049673058 -0.034411341 0.074092612
0.053335804 -0.033201307 0.072688103
0.056660771 -0.031737689 0.072226994
0.060005929 -0.030428372 0.071256466
-0.050557617 -0.026161676 0.072258048
-0.047539525 -0.027447751 0.072488941
-0.044179678 -0.028981963 0.072870128
0.054687727 -0.029543018 0.073705867
0.058120243 -0.027902504 0.072590679
0.061049037 -0.026652584 0.072249837
-0.055207152 -0.020086579 0.07076852
-0.051925667 -0.022095516 0.072405495
-0.048895914 -0.023171993 0.072811611
0.059194326 -0.024111718 0.073139265
0.062596291 -0.022537682 0.07248652
0.065712415 -0.021005146 0.07211481
-0.055731032 -0.016872467 0.072225451
-0.052932251 -0.017713469 0.072582491
-0.049664013 -0.019441983 0.073909506
0.063821509 -0.018210609 0.072841182
0.066591673 -0.017208599 0.072421238
-0.056505729 -0.012353063 0.0723309
-0.053778876 -0.012806985 0.072779752
0.064663835 -0.014209327 0.074130498
0.067785084 -0.012625268 0.072607048
0.070455052 -0.0116372 0.072107784
-0.057133701 -0.0074543934 0.072349109
-0.054218285 -0.007797264 0.072965734
0.06868954 -0.0078364639 0.07268104
0.070897833 -0.007212183 0.072405256
-0.060127888 -0.0023898392 0.071530469
-0.05747446 -0.0025050598 0.07239493
-0.054603428 -0.0031190347 0.073419727
0.069247253 -0.0030403046 0.073093034
0.071454585 -0.0024149453 0.072368845
-0.060379229 0.0029155037 0.071734361
-0.057838894 0.0024486277 0.072573312
-0.054734111 0.0017786635 0.07405217
0.069475889 0.0020525716 0.07379467
0.072059542 0.0026444171 0.072481908
-0.060490496 0.0078274626 0.072129279
-0.058167212 0.0074319961 0.07263153
0.069741987 0.0065511805 0.073900871
0.072488688 0.0075791706 0.072452307
0.075043134 0.0093358569 0.071680449
-0.060603201 0.012668731 0.072318248
-0.058390453 0.012538135 0.072662912
0.069892183 0.012445624 0.07436014
0.072604746 0.012562222 0.072554797
-0.060504958 0.017386099 0.072231412
-0.058410347 0.017461324 0.072602816
0.069636397 0.018154668 0.074614719
0.072577469 0.017420281 0.072551705
0.07512147 0.016165277 0.071317576
-0.060388971 0.021744119 0.071989372
-0.058275081 0.022580242 0.072581574
0.069388859 0.022962252 0.073835179
0.072081156 0.022426946 0.072496928
-0.060210735 0.026121771 0.0722038
-0.057715334 0.027369536 0.072528757
-0.054755807 0.028660288 0.073973566
0.06887418 0.027828643 0.072870791
0.071319953 0.027246678 0.072365262
-0.0567488 0.032242589 0.072353378
-0.054363891 0.033347197 0.073318005
0.064879894 0.03379127 0.0742478
0.067990303 0.032683566 0.072565623
0.070597783 0.031480465 0.072159357
-0.055866159 0.036650907 0.072196662
-0.053612392 0.037855662 0.072696209
0.064055882 0.038382631 0.072792962
0.066815592 0.037235204 0.072319508
-0.05503789 0.040315006 0.074514844
-0.052200422 0.042349912 0.072444789
-0.049257692 0.043842539 0.073326409
0.059613179 0.044324607 0.073739231
0.062993251 0.04283921 0.072578594
0.065795183 0.041615516 0.072138436
-0.050986454 0.046375208 0.07225477
-0.04818248 0.047919236 0.07262446
-0.044224296 0.049922351 0.073767185
0.058671355 0.048319593 0.073006935
0.0617879 0.047247134 0.072355181
-0.046538256 0.051977098 0.072333001
-0.043800794 0.053321827 0.07279826
0.054084793 0.053944673 0.073536076
0.057602786 0.052593693 0.072558813
0.060803693 0.050959468 0.071980394
-0.045535289 0.055452526 0.071446948
-0.042124644 0.057204869 0.072444849
-0.038851775 0.058744803 0.072708309
0.048980147 0.059048377 0.07359089
0.052882206 0.057823528 0.072573282
0.056175541 0.056300871 0.07227286
-0.04049281 0.060493317 0.071765758
-0.037119035 0.062050547 0.072471909
-0.03345513 0.063636638 0.072689772
0.03934082 0.064587332 0.07468155
0.043541323 0.063777022 0.07295005
0.047721509 0.062637858 0.072519727
0.051402878 0.061280079 0.072418399
-0.035500832 0.065050766 0.072712302
-0.031788018 0.066224642 0.072327621
-0.02762573 0.068012588 0.072555423
-0.022909094 0.069128111 0.072616667
-0.018292559 0.069598317 0.072217561
-0.014816166 0.069823198 0.07401219
0.028745892 0.06953916 0.07426165
0.033300467 0.068882167 0.073352031
0.03780999 0.068079278 0.0726659
0.042319175 0.067015186 0.072399281
0.046160974 0.065697461 0.072355852
-0.02563801 0.070414498 0.072183035
-0.022057449 0.071219794 0.072405018
-0.017348031 0.07221362 0.072446145
-0.012655117 0.072898194 0.072438955
-0.0077635855 0.07357607 0.072571203
-0.0030539415 0.0742893 0.072752766
0.0017463499 0.074716538 0.073578551
0.0084060291 0.074789569 0.074552931
0.012998354 0.074627645 0.073901236
0.017934633 0.07421612 0.072920553
0.022746325 0.073673181 0.072738275
0.02757588 0.072938271 0.072552934
0.032229479 0.071873479 0.072444111
0.036710963 0.070849881 0.072342344
0.040293176 0.070391685 0.070910074
-0.015972883 0.075213768 0.071197703
-0.011662622 0.075369701 0.072065338
-0.007337627 0.075997829 0.072271548
-0.0024356134 0.07658539 0.072405562
0.0025245296 0.0770583 0.072451346
0.0075612795 0.077307172 0.072483532
0.012618239 0.077101015 0.072517365
0.017526042 0.076664105 0.072423786
0.022196375 0.076000355 0.07242766
0.026228525 0.075354747 0.071969397
0.0041956147 -0.055283789 0.076941118
0.0071918257 -0.055252854 0.076224282
0.012350692 -0.055260707 0.075822346
0.016415279 -0.055205956 0.075031385
-0.021225903 -0.050282191 0.076677628
-0.017053572 -0.050851289 0.077165037
-0.012413689 -0.051384486 0.077160321
-0.0074540903 -0.051750496 0.077330269
-0.0024635 -0.052072238 0.07733275
0.0025651744 -0.052291039 0.077364668
0.007612085 -0.052416299 0.0773848
0.012591746 -0.052394457 0.077379718
0.017455326 -0.052113049 0.077356912
0.022322735 -0.051676393 0.077382535
0.02703343 -0.051157147 0.077126183
0.030981319 -0.050439954 0.076172076
-0.030414065 -0.045725401 0.076143056
-0.026892021 -0.046411138 0.077185616
-0.022311311 -0.047297571 0.077430613
-0.017643914 -0.047906887 0.077650189
-0.01268981 -0.048525754 0.077724032
-0.0077350405 -0.048894264 0.077856757
-0.0026743852 -0.049191713 0.077972315
0.0023299262 -0.049430493 0.078307331
0.0074326238 -0.049512696 0.078620993
0.012709422 -0.049549807 0.078413732
0.01772997 -0.049319189 0.078089215
0.022742778 -0.048900567 0.077846661
0.027656022 -0.048347007 0.077599727
0.032379441 -0.047470652 0.077475943
0.036759533 -0.046403944 0.077236772
0.040546913 -0.045481641 0.076659173
-0.035894915 -0.04073422 0.077116765
-0.03211287 -0.042142622 0.077346116
-0.027697274 -0.043030575 0.077617094
-0.023223922 -0.044226319 0.078064352
-0.01971514 -0.044635713 0.079605632
0.033605702 -0.044313699 0.078318812
0.037876159 -0.043213341 0.077767685
0.042191867 -0.04207664 0.077324197
0.046329021 -0.040765949 0.076742828
-0.041003633 -0.035918675 0.077095643
-0.037284222 -0.037277862 0.077441886
-0.033082921 -0.038258567 0.077719383
-0.029309994 -0.039448317 0.078903332
0.039591569 -0.039565388 0.079183295
0.043312345 -0.038610194 0.07804168
0.047528766 -0.037421197 0.077445284
0.051409733 -0.036083087 0.077104859
-0.0458511 -0.030889703 0.077087432
-0.042383112 -0.032299772 0.077465296
-0.038287308 -0.033606827 0.077671655
-0.034664877 -0.034363315 0.078938454
0.044886634 -0.034795124 0.079488233
0.048618395 -0.033800647 0.078425564
0.052788418 -0.032564189 0.077550165
0.056242995 -0.03132394 0.077114224
-0.050526083 -0.025835076 0.076808654
-0.047302075 -0.027194809 0.07744702
-0.043729924 -0.028298695 0.077812463
0.053973228 -0.028690595 0.078459039
0.057586461 -0.027473535 0.077515632
0.060912833 -0.026031515 0.077212624
-0.051616665 -0.022080215 0.07732562
-0.048177216 -0.022814456 0.07775221
-0.044809476 -0.024748741 0.077506758
0.05885971 -0.023484398 0.07794033
0.062136929 -0.022324065 0.077434517
0.065431915 -0.020713773 0.076968849
-0.055545032 -0.016374921 0.076611586
-0.052532736 -0.017468987 0.077482805
-0.04919529 -0.018161325 0.078202926
0.063208163 -0.017861221 0.077618606
0.066351824 -0.017087949 0.077362768
-0.056059901 -0.012293245 0.077107757
-0.052897755 -0.012583646 0.077672072
-0.049858902 -0.013761309 0.079119369
0.064060651 -0.013145162 0.077995993
0.067108907 -0.012405788 0.077457048
0.070264228 -0.010894654 0.07665024
-0.056506202 -0.0073637287 0.077339478
-0.053684659 -0.0077707265 0.077717945
0.064561225 -0.0091484739 0.079301916
0.067840405 -0.0077150934 0.07763765
0.070686325 -0.0068802303 0.077019386
-0.056966487 -0.0024419317 0.07739675
-0.054071814 -0.0026903732 0.077829309
0.068471551 -0.0027630033 0.077744827
0.071208201 -0.0023687934 0.07737691
-0.060029671 0.0035099536 0.075922132
-0.057306822 0.0026281518 0.077368625
-0.054346681 0.0022129475 0.07828334
0.068978511 0.0021659082 0.077933192
0.071700968 0.0026864612 0.077366121
-0.060289711 0.0078253141 0.076216251
-0.057559635 0.0075674444 0.077466883
-0.05446294 0.0072171087 0.078781947
0.069374204 0.0070218602 0.078012317
0.071952656 0.0075988774 0.077416569
-0.060431626 0.012820694 0.076310925
-0.057674985 0.012551003 0.077586457
-0.054637484 0.012255548 0.078946277
0.069450751 0.012679379 0.077798188
0.072052203 0.012592947 0.077466644
-0.0603812 0.017390786 0.076143131
-0.057670888 0.017529462 0.077601939
-0.054720476 0.01771641 0.079260297
0.069340825 0.017826676 0.078040347
0.071916364 0.01746566 0.077293441
-0.060397204 0.021331614 0.076809756
-0.057558767 0.022431199 0.077444807
-0.054610275 0.023068378 0.07899192
0.06894365 0.022809014 0.077821322
0.071554475 0.022264818 0.077243738
-0.057079483 0.027306849 0.077302776
-0.054236904 0.027830634 0.078229323
0.068193465 0.027637986 0.077613294
0.070868209 0.027070085 0.0770735
-0.056292806 0.032058854 0.077305824
-0.053636353 0.032739799 0.077681579
0.064218327 0.033560075 0.07854265
0.067319967 0.032369923 0.07745187
0.070342712 0.031071568 0.076244861
-0.055637117 0.036266126 0.076616473
-0.052711688 0.037506636 0.077581078
-0.049466483 0.038740724 0.078893587
0.063291632 0.037901048 0.077837683
0.066264369 0.037033569 0.077259883
-0.051770676 0.042117868 0.077250779
-0.048614223 0.043019786 0.077952571
0.058950223 0.043758418 0.078121208
0.062394485 0.042519461 0.077475704
0.065476932 0.041019477 0.076703817
-0.050787672 0.045975115 0.076712802
-0.047459718 0.047493599 0.077493742
-0.044168871 0.048777722 0.078335315
0.054406945 0.04897685 0.078653812
0.057945233 0.047807481 0.077597611
0.061405368 0.047120728 0.077311508
-0.046251357 0.0516885 0.077104568
-0.042979989 0.052940041 0.07767497
-0.039438423 0.054019619 0.079257846
0.049687803 0.054696146 0.07905364
0.0533063 0.053050291 0.077838309
0.057155583 0.052365948 0.077369712
0.060459714 0.050566882 0.076283313
-0.041607123 0.056972127 0.07719779
-0.038203005 0.05807098 0.077775218
-0.034410812 0.059863172 0.078861371
0.044578686 0.059500907 0.07874769
0.048308894 0.058233846 0.077937298
0.052404664 0.057344902 0.077432141
0.05582054 0.056223288 0.076790787
-0.040276658 0.06033292 0.077197231
-0.036729921 0.061635952 0.077297591
-0.032954875 0.063169345 0.077692136
-0.029006492 0.064240247 0.078613766
0.034260321 0.064714924 0.079636618
0.038320091 0.06405922 0.07842426
0.043004315 0.063068569 0.077749975
0.047417097 0.062298555 0.077435225
0.051094841 0.061046284 0.07708206
-0.031473879 0.065892629 0.077257983
-0.027359461 0.067400239 0.077578209
-0.022793427 0.068676315 0.077769428
-0.018140735 0.069454364 0.078081407
-0.01428115 0.069783702 0.079063334
0.024351347 0.069770321 0.07855808
0.028191054 0.068944998 0.078065157
0.032811586 0.068092942 0.077769719
0.037539892 0.06747549 0.077506065
0.042175446 0.066586785 0.077351741
0.04600532 0.065642163 0.077096887
-0.025662242 0.070173532 0.07672663
-0.022098638 0.070871338 0.07736522
-0.017350871 0.071927145 0.077376254
-0.012658556 0.07271865 0.077526361
-0.0077180476 0.073375672 0.077503063
-0.002797035 0.073924176 0.077710234
0.0022452858 0.074344553 0.078071184
0.0076684509 0.074342087 0.078249529
0.012715773 0.074135862 0.077814862
0.01771716 0.073627703 0.077752925
0.022653686 0.072991692 0.077640489
0.027389867 0.072376221 0.077420361
0.032153506 0.071513064 0.077344246
0.036336087 0.070663631 0.07717447
-0.011313028 0.075177729 0.076835267
-0.0072290041 0.075683549 0.077332541
-0.0023948045 0.076276101 0.077361673
0.0026405766 0.076677762 0.077428028
0.0075443331 0.07683365 0.077435069
0.012493232 0.07676094 0.077394828
0.01739949 0.076424964 0.077358723
0.022044363 0.075879119 0.077310786
0.02570211 0.075359538 0.076879025
-0.016763333 -0.050477151 0.081680641
-0.012290913 -0.050788987 0.081853673
-0.0074223503 -0.051068116 0.082169779
-0.0024280874 -0.051463544 0.082312085
0.0025425879 -0.051723689 0.08233384
0.0076532974 -0.051829703 0.082354672
0.012529328 -0.051798429 0.082335494
0.017451966 -0.051512998 0.082305215
0.022136185 -0.051184393 0.082144842
0.02635305 -0.050677139 0.081497051
-0.026232664 -0.045899604 0.081829555
-0.022290224 -0.046660226 0.082214952
-0.017393962 -0.047341205 0.082353577
-0.012583008 -0.047691554 0.082626849
-0.0076040714 -0.047960605 0.082724176
-0.0026269408 -0.048396949 0.082756631
0.0024721578 -0.048687004 0.082783207
0.007571938 -0.048806671 0.082866877
0.012662608 -0.04884021 0.082899727
0.017661478 -0.048697833 0.08280962
0.022531493 -0.048211761 0.082759239
0.02741494 -0.047606882 0.082605973
0.032096881 -0.046896558 0.08227957
0.036266461 -0.045892283 0.081967525
-0.035444308 -0.040387858 0.081286669
-0.031914383 -0.041596238 0.0822137
-0.027446738 -0.042554278 0.082549557
-0.022707209 -0.043355491 0.082885183
-0.017964697 -0.044134084 0.083291352
-0.013128755 -0.044484828 0.084199369
-0.0084810182 -0.044838175 0.084603667
0.023387969 -0.044759832 0.084999919
0.028709313 -0.044473525 0.083812803
0.032895546 -0.043563306 0.082920812
0.037457488 -0.042534322 0.0825454
0.041710299 -0.041402489 0.082113922
0.045858603 -0.040241912 0.080919117
-0.040570945 -0.035372019 0.081701271
-0.037024308 -0.03687571 0.082357258
-0.032708541 -0.0377695 0.082611822
-0.028215971 -0.038987357 0.083248518
-0.024941837 -0.039722532 0.084823564
0.038541455 -0.038910203 0.083384089
0.042740598 -0.03777273 0.082676999
0.047170516 -0.036758486 0.082302004
0.050836656 -0.035517577 0.08195889
-0.045639414 -0.030579343 0.081702031
-0.042134583 -0.031982508 0.082431793
-0.038000643 -0.033060353 0.082703866
-0.0342528 -0.034291193 0.083688378
0.043885283 -0.034227457 0.083680324
0.047941938 -0.032910235 0.082780987
0.052224472 -0.032002747 0.082339607
0.055643167 -0.03070695 0.081589922
-0.05025959 -0.02515664 0.080856629
-0.046954632 -0.026997851 0.08236549
-0.043098431 -0.027913317 0.082746737
-0.039557442 -0.029296705 0.083949439
0.049301933 -0.029161477 0.084207505
0.053071529 -0.028018303 0.082832739
0.057073176 -0.026970893 0.082390361
0.060455628 -0.025384398 0.080978245
-0.051119935 -0.021915128 0.082217902
-0.04775805 -0.022537556 0.08260306
-0.044347208 -0.023726458 0.083625048
0.05454082 -0.024202218 0.083803497
0.058108907 -0.022913296 0.082813814
0.061443333 -0.021891262 0.082269415
0.065053217 -0.020167066 0.080207728
-0.055280101 -0.015573464 0.080407247
-0.052132234 -0.017287588 0.082357712
-0.04863669 -0.017771784 0.082764469
0.05933857 -0.018938502 0.083827645
0.062612399 -0.01761397 0.082623363
0.065855153 -0.016564811 0.081916384
-0.055495895 -0.011766375 0.081399284
-0.052550659 -0.012523921 0.082555905
-0.049417455 -0.013148772 0.083162554
0.063547388 -0.012850754 0.082776546
0.066699624 -0.012292195 0.082352526
0.070093416 -0.010252332 0.080924362
-0.055911973 -0.0071936049 0.082072981
-0.052852981 -0.0076098666 0.082715705
-0.049678832 -0.009358217 0.08430481
0.064154766 -0.0081483591 0.083107814
0.067326292 -0.0075286445 0.082537666
0.070338853 -0.0063568526 0.081558727
-0.056335736 -0.0024794475 0.08235272
-0.053221166 -0.0026412643 0.082804061
0.064512789 -0.0035379692 0.084195815
0.067644894 -0.0026518018 0.082678802
0.070715919 -0.0021494639 0.082207985
-0.0566594 0.0026090026 0.082351193
-0.053588156 0.0024899289 0.082758687
0.068239644 0.0023556175 0.082758695
0.071303077 0.0026594736 0.082333155
-0.056955442 0.0076399189 0.082398787
-0.053798586 0.0074959719 0.082910612
0.068879247 0.0073961494 0.082875721
0.071475193 0.0076514473 0.082307756
-0.060113478 0.014761393 0.080027856
-0.05711199 0.012647524 0.082353882
-0.054048643 0.012446551 0.082850195
0.068968721 0.012509854 0.082880303
0.071303681 0.01254053 0.082330294
-0.057072476 0.017548302 0.08232417
-0.054131586 0.017589642 0.082995914
0.068763629 0.017762335 0.082783148
0.071174137 0.017421814 0.082171433
-0.056923915 0.022376359 0.082367137
-0.053883571 0.022606524 0.082882918
0.064800292 0.024123659 0.08461877
0.068082273 0.022734534 0.082752749
0.07084585 0.022160888 0.082036421
-0.056490786 0.027177814 0.082280457
-0.053334612 0.027568907 0.082828194
0.06422209 0.028351743 0.083704859
0.067429207 0.027439106 0.082551166
0.070287623 0.026257567 0.081684522
-0.055737536 0.031865042 0.082055137
-0.052709829 0.032509621 0.082675546
-0.049521655 0.033259761 0.083823368
0.06355796 0.032768458 0.08299832
0.066671208 0.032163016 0.082353704
-0.055343006 0.035035081 0.080179743
-0.052156452 0.037282061 0.082400933
-0.048712809 0.037941966 0.082990661
0.059300512 0.03883313 0.083779052
0.062579028 0.037567243 0.082647577
0.06574142 0.036499146 0.081987076
-0.051196188 0.04157209 0.082012877
-0.047704078 0.042662553 0.082669199
-0.044206467 0.043668412 0.083761312
0.054984249 0.044802934 0.08412008
0.058426302 0.042932924 0.082801282
0.061761379 0.042151459 0.082298532
0.065190241 0.040709164 0.08081568
-0.050192125 0.045128047 0.081136495
-0.046827249 0.047115572 0.082270317
-0.043226499 0.04795824 0.082904294
-0.039702054 0.049598012 0.084485017
0.05391461 0.048636269 0.082922436
0.057498913 0.047554035 0.082501344
0.06084558 0.046638742 0.081845187
-0.04574503 0.050991103 0.081371546
-0.042308636 0.052347966 0.082465746
-0.038622759 0.053322896 0.083232254
0.049090493 0.054089963 0.083126135
0.052751776 0.052768484 0.082635939
0.05657573 0.051868889 0.082076244
-0.041060559 0.056495219 0.08209271
-0.037456378 0.057469875 0.082527861
-0.03370598 0.058654293 0.083362266
0.04400374 0.05879879 0.083142027
0.047811996 0.057684608 0.082688943
0.051891655 0.056879379 0.082151212
0.055427145 0.055681486 0.080937758
-0.036302313 0.061056454 0.081999987
-0.032341469 0.062377784 0.082545556
-0.028046852 0.063505873 0.082973391
-0.024030963 0.064434208 0.084306665
0.033640061 0.064410098 0.083089449
0.037934516 0.063486077 0.082786381
0.042605665 0.062551349 0.082541637
0.046871867 0.061705936 0.082154594
0.050544318 0.060546078 0.08098872
-0.030895228 0.065666124 0.08166948
-0.027078027 0.066764869 0.082345285
-0.022665784 0.067756735 0.082697757
-0.017822573 0.068754748 0.082828261
-0.01335407 0.069385886 0.083411522
-0.0087870965 0.069811575 0.084128298
0.019534653 0.069583662 0.08471027
0.023307636 0.069328733 0.08330366
0.027811963 0.068564028 0.08272481
0.032572515 0.067597732 0.08261665
0.037273761 0.067102335 0.082419634
0.041762292 0.065989442 0.082099102
0.045602381 0.065177649 0.080308944
-0.025297256 0.070096046 0.080951765
-0.021569228 0.070611842 0.082174592
-0.017332835 0.071441159 0.082372613
-0.012476516 0.072231129 0.082411751
-0.0077444534 0.072872788 0.08265765
-0.002602973 0.073343515 0.082791619
0.0025088922 0.073605865 0.08282876
0.0075680516 0.073633589 0.082931809
0.012690006 0.073399261 0.082824826
0.017659565 0.072922416 0.082736276
0.022411721 0.072513118 0.082563341
0.02715758 0.071926206 0.082447909
0.031821575 0.071019329 0.082123414
0.035958394 0.070377491 0.080721468
-0.0067578214 0.075549342 0.081975423
