# .PCD v0.7 - Point Cloud Data file format
VERSION 0.7
FIELDS x y z
SIZE 4 4 4
TYPE F F F
COUNT 1 1 1
WIDTH 1293
HEIGHT 1
VIEWPOINT 0 0 0 1 0 0 0
POINTS 1293
DATA ascii
0.042550918 0.012643537 0.0073766923
0.047507886 0.012632011 0.0076354961
0.052264187 0.012483354 0.0079605225
0.055789474 0.012192204 0.009097592
-0.055926744 0.017224371 0.0090055857
-0.052393671 0.017489819 0.0079763122
-0.047553271 0.017531071 0.0074936929
-0.042605888 0.017603097 0.0072701965
-0.037668873 0.017589455 0.0064754756
-0.032500602 0.017628949 0.0058639864
-0.027389441 0.017421475 0.0055805012
-0.0225794 0.01753814 0.005595569
-0.017539682 0.017335076 0.0055236691
-0.01266433 0.017574487 0.0054507027
-0.0077869766 0.017671289 0.0053881975
-0.0025468185 0.017636567 0.0054250625
0.0026580431 0.017557241 0.0054052724
0.0075935544 0.01758199 0.0054653976
0.012569829 0.017518178 0.005553796
0.01759294 0.017620917 0.0056145689
0.022524307 0.017486963 0.0056855697
0.027387725 0.017584087 0.0057331086
0.032614354 0.017659664 0.0061008222
0.037706744 0.017571772 0.0069074221
0.042564645 0.017515317 0.0074300175
0.047448646 0.017595144 0.0077170529
0.052110143 0.017397285 0.0080210194
0.055417284 0.017341487 0.009426197
-0.055900592 0.021781895 0.0094210804
-0.052042346 0.022336207 0.0079751005
-0.047500692 0.02239481 0.0075821774
-0.042564414 0.022431446 0.0073610879
-0.03770867 0.022551682 0.0068821432
-0.03255837 0.022599962 0.006082336
-0.027621569 0.022596596 0.0056826361
-0.022556175 0.022423729 0.0055459589
-0.017619969 0.022423999 0.0055660121
-0.012502068 0.022424869 0.0054819183
-0.0076173935 0.022636455 0.0054478515
-0.0025508536 0.022469131 0.0054337676
0.0024895503 0.022598552 0.0054298472
0.0075544612 0.022505194 0.0054713655
0.012436532 0.022324869 0.0055632293
0.017560553 0.022516506 0.0057064747
0.022471953 0.02238664 0.0056505175
0.027529068 0.022483066 0.0059237545
0.032585073 0.022623116 0.0063463529
0.037584614 0.022456817 0.0071713692
0.042529583 0.022424709 0.0074703721
0.047488444 0.022460101 0.007784104
0.051725097 0.022213589 0.008453548
0.055321522 0.021036725 0.0096902717
-0.055093158 0.025766117 0.0098289214
-0.051563423 0.02706218 0.0083355578
-0.047453016 0.027344462 0.0076771975
-0.04252753 0.027376465 0.0074580647
-0.037558936 0.027454302 0.0072276569
-0.032630239 0.027513612 0.0064913123
-0.027553808 0.027543059 0.0059480127
-0.022530034 0.027654285 0.0056687756
-0.017563554 0.027433647 0.005555748
-0.012635341 0.027521163 0.0054715886
-0.0075732279 0.027548309 0.0054459511
-0.0024536503 0.027414532 0.0055456567
0.0025639124 0.027377343 0.0054720477
0.0076465295 0.027444238 0.0055287546
0.012543583 0.027378963 0.0056199273
0.017581444 0.027516052 0.0056003984
0.022591121 0.027521515 0.005756137
0.027540794 0.02745859 0.0061363
0.032665774 0.027529815 0.0068648928
0.037529886 0.027375648 0.0073390272
0.042439397 0.027370553 0.0075549688
0.047361325 0.027413541 0.0079941871
0.051202975 0.026777459 0.0088428464
-0.051048446 0.031561624 0.0090273768
-0.047240213 0.032208916 0.0079426998
-0.042441536 0.032392688 0.0076174401
-0.037449177 0.032418292 0.0074049174
-0.032580633 0.032527912 0.0071174609
-0.027575199 0.032595415 0.0063998089
-0.02253316 0.032439489 0.0059956466
-0.017690437 0.032546781 0.005768883
-0.012545965 0.032603227 0.0055459966
-0.0075417184 0.032500099 0.0055613858
-0.0025560192 0.032422133 0.0055512656
0.0024828408 0.032479502 0.0055490197
0.0075176554 0.032562517 0.0055798781
0.012568007 0.032556552 0.0057158992
0.017656727 0.032520607 0.0058550141
0.022605373 0.032554917 0.0061062351
0.027530255 0.03259306 0.0066606561
0.032437634 0.03245423 0.0072690253
0.037433695 0.032388069 0.0074651353
0.042432319 0.032373216 0.0078352019
0.04682174 0.032086875 0.0083442517
0.050369963 0.031307448 0.0094206817
-0.0464704 0.036682684 0.0084169284
-0.042391326 0.037347369 0.0078704823
-0.037447095 0.037408318 0.00753571
-0.032445684 0.037462 0.0073690694
-0.027530592 0.037612829 0.0071088481
-0.022599267 0.037626475 0.0066093481
-0.017739637 0.037632875 0.0061931117
-0.012685017 0.037626315 0.0059301164
-0.0075415107 0.037581842 0.0058433795
-0.0025047802 0.037559107 0.0058039315
0.0024737078 0.037583787 0.0058132545
0.007668349 0.037604973 0.005820984
0.012727269 0.037606191 0.0060176095
0.017652543 0.037634473 0.0062856753
0.022538597 0.037678793 0.0068077096
0.027417026 0.037544802 0.0072193942
0.032398902 0.037484288 0.0074150683
0.037346516 0.037386332 0.0076464927
0.042200927 0.037239205 0.0080705015
0.046276644 0.036694326 0.0091691557
-0.045583118 0.040939726 0.0093153957
-0.041900303 0.041951269 0.0082021402
-0.037355889 0.042464614 0.0077399914
-0.032386996 0.042475514 0.0075054197
-0.02736151 0.042592723 0.0073905787
-0.022504315 0.042569734 0.0072767627
-0.017627992 0.042748582 0.0069845966
-0.012692271 0.042716935 0.0066156187
-0.0075748772 0.042707313 0.0064496333
-0.0024947328 0.042748541 0.0063168826
0.0025686629 0.042754192 0.0063539287
0.007601249 0.042723559 0.0064545507
0.012643847 0.042716578 0.0067794006
0.01758999 0.042662546 0.0070791435
0.022458168 0.042586684 0.0073565352
0.027380358 0.042550206 0.0074420776
0.032374837 0.042413406 0.0076691411
0.037243944 0.042275168 0.0079240259
0.041515056 0.041469421 0.0088337464
-0.040549718 0.045781177 0.0092538157
-0.036886357 0.046981156 0.0081990305
-0.032299738 0.047508534 0.0076750852
-0.027370716 0.047488086 0.0076533998
-0.022410702 0.04756999 0.0074938335
-0.017549962 0.047577314 0.0074030668
-0.012624748 0.047613561 0.0073504574
-0.0075834198 0.047673747 0.0072571631
-0.0025424676 0.047691856 0.0072012939
0.0025306137 0.047746539 0.0071868929
0.0075932066 0.047679219 0.0072477269
0.012676382 0.047604181 0.0073665506
0.017592221 0.047608979 0.0074395463
0.022412837 0.047524862 0.0075710528
0.027306858 0.047478665 0.0077617089
0.032038156 0.047192756 0.0079850154
0.03657902 0.046356916 0.0088518141
0.040591314 0.045482118 0.009810647
-0.035813641 0.050691474 0.0093712835
-0.031792071 0.051459022 0.0085991723
-0.027248731 0.052205279 0.007866011
-0.022453882 0.052531414 0.0076783439
-0.01754513 0.052466128 0.007588251
-0.012607398 0.052559767 0.0075930445
-0.0076158061 0.052573189 0.0075481459
-0.0025328409 0.052595932 0.0074960347
0.0025142329 0.052611116 0.0074657397
0.0075878282 0.052563149 0.0075537204
0.012554575 0.052493829 0.0075573614
0.017478451 0.052488137 0.0076952651
0.022365691 0.05236036 0.0078029474
0.027010392 0.051836211 0.0081737144
0.031337928 0.05113693 0.009274398
-0.026389908 0.056017235 0.0092839254
-0.022098124 0.056306701 0.0083602639
-0.017418271 0.056863695 0.0079259314
-0.012534035 0.057280865 0.0077715679
-0.0075500333 0.057461321 0.0076615051
-0.0025542688 0.057443775 0.0076758247
0.0025054354 0.057485383 0.00777832
0.0075432109 0.057380706 0.0078462064
0.012438187 0.05718014 0.0079546832
0.017032929 0.056667406 0.0082383659
0.021739112 0.056241434 0.0090771476
0.025549145 0.055250961 0.0090134284
-0.016387461 0.0605103 0.0095968451
-0.012112586 0.06059999 0.0093400031
-0.0072473572 0.060785022 0.0089737885
-0.0024920856 0.060918152 0.0086075841
0.0025371979 0.060899802 0.0087744044
0.0072577177 0.060808394 0.0091742156
0.012432814 0.060572535 0.009521178
0.016476648 0.060257439 0.0099754753
-0.016721472 -0.055433266 0.014490028
-0.012209102 -0.055729985 0.014458027
-0.0072920802 -0.055725899 0.014118682
-0.0023690462 -0.055827979 0.014077418
0.0024160345 -0.055810858 0.014042591
0.0073669772 -0.055627175 0.014239079
0.011854305 -0.055518892 0.014529281
-0.030480415 -0.05030828 0.014241056
-0.02688822 -0.050966818 0.013754151
-0.022291435 -0.051633075 0.013576362
-0.017351251 -0.052067731 0.013266618
-0.012485105 -0.052258521 0.013110843
-0.0075675058 -0.052280854 0.012864501
-0.002564 -0.05235903 0.012797696
0.0024870529 -0.05231474 0.012774973
0.0075148102 -0.052291621 0.012950128
0.012528104 -0.052056853 0.013212725
0.017298333 -0.051768869 0.013264962
0.021999378 -0.051169429 0.013907938
0.026144411 -0.050512701 0.01427717
-0.036047094 -0.045792878 0.014396117
-0.031746853 -0.046629127 0.013288205
-0.027269851 -0.047337435 0.012878879
-0.02237848 -0.047369171 0.012758342
-0.017503697 -0.047494706 0.012759797
-0.012590898 -0.047521889 0.012668545
-0.007594171 -0.047595389 0.012606544
-0.002531931 -0.047588859 0.012603813
0.0025222804 -0.047615338 0.012617184
0.0075884596 -0.047581233 0.012620781
0.012618756 -0.0474937 0.012685384
0.017523292 -0.047473535 0.012728121
0.022357523 -0.047369942 0.012829735
0.027268309 -0.047104508 0.013263927
0.031639051 -0.046303928 0.01388236
0.035333 -0.045215238 0.014482886
-0.045370877 -0.040459365 0.014717091
-0.041409031 -0.04140437 0.013847022
-0.037093695 -0.041917652 0.013175934
-0.032263402 -0.042358439 0.012825953
-0.027368816 -0.042520303 0.012589675
-0.022448616 -0.042555045 0.012560901
-0.017570423 -0.042584177 0.012542985
-0.012571163 -0.042678043 0.012421946
-0.0076101725 -0.04277971 0.012285838
-0.002531891 -0.042856783 0.012200228
0.0025510797 -0.042839333 0.01217632
0.0076255836 -0.042699106 0.012295468
0.012643621 -0.042656634 0.012478703
0.017554792 -0.042642396 0.012555431
0.022391336 -0.042509619 0.012596237
0.027294248 -0.042412519 0.01272451
0.032275561 -0.042292416 0.01289187
0.036898527 -0.041836973 0.013687431
0.040995616 -0.04115884 0.014432373
-0.046531949 -0.036547028 0.014098954
-0.042128406 -0.037060693 0.013042015
-0.037352912 -0.037376791 0.012691201
-0.032418054 -0.037484832 0.012605247
-0.027456729 -0.037585907 0.012501735
-0.02262265 -0.037769224 0.012162814
-0.017731026 -0.03803334 0.011722163
-0.01273017 -0.038213864 0.011182022
-0.0076624495 -0.038641211 0.011011368
-0.0024591913 -0.038728211 0.010909487
0.0026632941 -0.038670689 0.010929691
0.0077744499 -0.038508724 0.011219166
0.012793003 -0.038115501 0.011538411
0.017674705 -0.037849031 0.012027495
0.022573769 -0.037600689 0.012341797
0.027416443 -0.037557829 0.012562613
0.032363538 -0.037436597 0.012646796
0.037388496 -0.037336491 0.012890056
0.041833226 -0.036882449 0.013499411
0.045866374 -0.035869163 0.014367532
-0.051270388 -0.0312864 0.014164869
-0.047080815 -0.032071885 0.013047441
-0.04247202 -0.032354306 0.012759082
-0.037479963 -0.0324279 0.012605509
-0.032595117 -0.032565091 0.012374789
-0.027782209 -0.032828934 0.011723526
-0.023059962 -0.033496559 0.011022215
-0.018376984 -0.034304425 0.010433082
0.013635157 -0.034352615 0.010490475
0.017989717 -0.033920541 0.010742213
0.022811281 -0.03311288 0.011383879
0.027582388 -0.03271731 0.01213476
0.032455988 -0.032507837 0.012478212
0.037438221 -0.032366842 0.012635399
0.042271957 -0.032355133 0.012835069
0.046815757 -0.031890683 0.013572262
0.050053462 -0.03164703 0.014315359
-0.055546865 -0.026197039 0.0145262
-0.051884629 -0.026987344 0.013329453
-0.047488943 -0.027350901 0.012725192
-0.042527642 -0.027386336 0.012599282
-0.03767354 -0.027582422 0.012368889
-0.032893639 -0.027861316 0.011444926
-0.028501466 -0.028529607 0.01067961
-0.024734069 -0.029198501 0.010023943
0.024330156 -0.029324725 0.010467127
0.028365405 -0.028312381 0.011173639
0.032762989 -0.027779274 0.01207263
0.037555989 -0.027477641 0.012484237
0.042474441 -0.027373169 0.012660224
0.047318961 -0.027219715 0.012879334
0.051002044 -0.026427036 0.013992404
-0.056324147 -0.022076331 0.013851637
-0.052274764 -0.022341833 0.012837529
-0.047571357 -0.022440033 0.012654846
-0.042679954 -0.022487354 0.012471216
-0.037913989 -0.022877548 0.011573222
-0.033718456 -0.023672339 0.010658604
0.029792577 -0.024121467 0.010386705
0.033231162 -0.023194538 0.01114419
0.037732597 -0.022669593 0.01219235
0.042606972 -0.022522351 0.012540414
0.047469813 -0.022419591 0.012737639
0.051756375 -0.022105385 0.013256713
0.05556754 -0.02076851 0.014553079
-0.060392708 -0.015934763 0.014376716
-0.057015982 -0.01713419 0.013477313
-0.052492842 -0.017478582 0.012707364
-0.0475928 -0.017568473 0.012606114
-0.042877715 -0.017759766 0.012014937
-0.03867906 -0.018184528 0.01080385
0.03457934 -0.018867495 0.010455702
0.038064446 -0.017922364 0.011419405
0.042734634 -0.017657811 0.012375299
0.047487542 -0.01754526 0.012689338
0.052301332 -0.017438939 0.01281054
0.056035325 -0.016739452 0.013922484
-0.060511161 -0.012135103 0.014298663
-0.057149906 -0.012418661 0.012997847
-0.052569214 -0.012564952 0.012635653
-0.047785237 -0.01265029 0.012478673
-0.0432804 -0.01292392 0.011326819
-0.039468788 -0.013781632 0.010302808
0.039003812 -0.013272841 0.010724857
0.042925831 -0.012743914 0.012011237
0.047619898 -0.012620852 0.012581612
0.052476339 -0.012548311 0.012704575
0.056565758 -0.012335579 0.013592709
-0.060967226 -0.0073318621 0.013970711
-0.05728374 -0.0075235013 0.01272786
-0.052605245 -0.0075869481 0.012608922
-0.047926951 -0.0076537598 0.012213506
-0.043829352 -0.0079824952 0.010831851
0.039613459 -0.0092863282 0.010437585
0.043224599 -0.0077690505 0.011495155
0.047664419 -0.0076383878 0.012500826
0.05259569 -0.0075716376 0.012685054
0.056913778 -0.0074382643 0.013243096
0.060502756 -0.0067496491 0.01451641
-0.0612965 -0.0022900547 0.013755076
-0.057378415 -0.0024595074 0.012741936
-0.052663341 -0.0025523161 0.012597062
-0.048139632 -0.0026109808 0.01186507
-0.044311967 -0.0028820883 0.010457773
0.043516539 -0.0028280867 0.011017906
0.04776131 -0.0025992945 0.012332297
0.052594699 -0.0025328831 0.012643769
0.057055276 -0.0024698765 0.013051763
0.060567398 -0.0023351707 0.014437865
-0.061477005 0.0026209739 0.013751718
-0.057410795 0.0024706514 0.012715947
-0.052679591 0.0025448969 0.012561603
-0.0481438 0.0024943424 0.011653533
-0.044589359 0.002105013 0.010352871
0.043873034 0.0024445781 0.010843953
0.047919873 0.0024473683 0.012240085
0.052597791 0.0025232143 0.012663006
0.057159912 0.0025147847 0.012916551
0.060933128 0.0029401719 0.014389168
-0.061356489 0.0074630254 0.013672441
-0.057339117 0.0075770584 0.012746832
-0.052653812 0.0076030013 0.012539318
-0.048165899 0.0075525451 0.011697779
-0.044596229 0.0075735878 0.01031092
0.043995325 0.0076087145 0.010823281
0.047896519 0.0075696935 0.012212832
0.052621745 0.0075778151 0.012685219
0.057177331 0.0075502177 0.012970497
0.060456917 0.0074088215 0.014311641
-0.061376393 0.012533496 0.013795854
-0.057362065 0.01260118 0.012714005
-0.052661963 0.012620779 0.012597625
-0.048170749 0.012559309 0.011834512
-0.04440644 0.013033806 0.010535992
0.043839399 0.012631103 0.011000407
0.047860298 0.012612483 0.012292095
0.052590705 0.012592422 0.012615525
0.057194907 0.01253276 0.013027893
0.060580015 0.012528802 0.014372776
-0.0612505 0.017378934 0.013952134
-0.057324342 0.017460011 0.012878084
-0.052643381 0.017523846 0.012627483
-0.04796765 0.017642535 0.012125306
-0.043885108 0.017878426 0.010736926
0.043344803 0.01770021 0.01121769
0.047737308 0.017591955 0.012450212
0.052575476 0.017524458 0.012691358
0.056948502 0.017460123 0.013147078
0.060525775 0.016615618 0.014701806
-0.060682926 0.022011943 0.014179364
-0.057173066 0.022274794 0.013023003
-0.052596394 0.022392374 0.012647441
-0.047739968 0.022505235 0.012391034
-0.043443706 0.022890706 0.011190281
0.039163541 0.023225343 0.010481224
0.043104555 0.022652863 0.011739197
0.047610693 0.022447202 0.012542572
0.052483659 0.022436397 0.012730647
0.056649528 0.02222554 0.013397837
0.060063459 0.020100724 0.01493083
-0.060667854 0.026201937 0.014578411
-0.056887433 0.027240377 0.013533107
-0.052505367 0.027345432 0.01267607
-0.047667827 0.027379768 0.012529097
-0.043063682 0.027687075 0.011857169
-0.038902041 0.028258618 0.010581051
0.038391989 0.027995698 0.011024178
0.042827003 0.027520059 0.012269961
0.04764539 0.027381539 0.012601855
0.052230019 0.027327558 0.012769461
0.056364313 0.027082067 0.013776426
-0.056329403 0.031775802 0.013997449
-0.052222043 0.032200012 0.013021889
-0.047567803 0.032384388 0.012673018
-0.042723592 0.032527734 0.012372579
-0.038150035 0.032942407 0.011353443
-0.033950467 0.034013163 0.010472872
0.033668779 0.033373389 0.010753687
0.037937034 0.03273122 0.011810761
0.042602707 0.032429289 0.012551845
0.047502816 0.032368954 0.012726932
0.05204758 0.032212228 0.01314501
0.055715144 0.031113932 0.014348979
-0.05564468 0.036151249 0.014542211
-0.051719155 0.037115552 0.013625903
-0.047427602 0.037384547 0.012760342
-0.042539254 0.037511509 0.012593856
-0.037714321 0.037701324 0.012249596
-0.033019673 0.038130641 0.011262419
-0.028884484 0.039071996 0.010516614
0.02836062 0.038847595 0.010744017
0.032901075 0.03790665 0.011605815
0.037596397 0.037566915 0.012439991
0.042514835 0.037424479 0.012683298
0.047183618 0.037305582 0.0129389
0.051628333 0.036947601 0.014049373
-0.050843887 0.041113991 0.014193189
-0.047155567 0.042218901 0.013218882
-0.042470768 0.042477153 0.012700913
-0.037475258 0.042561337 0.012621343
-0.032610428 0.04278532 0.012294292
-0.02775074 0.043019436 0.01142131
-0.022882236 0.043894581 0.010769638
-0.018855367 0.044597071 0.010310372
0.018852567 0.044206947 0.010435119
0.022891795 0.043442078 0.010876906
0.027759926 0.042986088 0.011726111
0.032546252 0.042657677 0.012409513
0.037467211 0.042545635 0.012635355
0.042338841 0.042360645 0.012772804
0.046687756 0.041884694 0.013573494
-0.046629556 0.046499148 0.014072643
-0.042171631 0.047219705 0.013185576
-0.037443303 0.047557663 0.012666335
-0.032407202 0.047629628 0.012636763
-0.027501509 0.047700007 0.012471014
-0.022625595 0.048069574 0.011993688
-0.017783668 0.048204154 0.011383922
-0.01276869 0.048741579 0.010932944
-0.0076884306 0.049100261 0.010699953
-0.0025829668 0.049268991 0.010638831
0.0026657358 0.049142845 0.010592021
0.0078071873 0.048984412 0.010864841
0.01289033 0.048537895 0.011079421
0.017742634 0.048174541 0.011557396
0.022560682 0.047941234 0.012178304
0.027387591 0.047655731 0.012504682
0.032393619 0.047571108 0.012647098
0.037309561 0.047421031 0.012769381
0.041878682 0.046844836 0.013468745
0.045395836 0.045698252 0.014081534
-0.041763838 0.051191445 0.014159184
-0.037112545 0.052126348 0.013282016
-0.032364 0.052492153 0.012697791
-0.027300127 0.052574337 0.012679458
-0.022498025 0.052645624 0.012607458
-0.017665885 0.052720856 0.012429207
-0.01262852 0.052881945 0.0122743
-0.0076267924 0.052990802 0.012036438
-0.0024680111 0.05305684 0.011974203
0.0025601913 0.05302047 0.01195848
0.0076334327 0.05294127 0.012138519
0.01266811 0.052826636 0.012316218
0.017610686 0.052696038 0.012520092
0.022461765 0.05262896 0.012604358
0.027376676 0.05261606 0.012653831
0.032203712 0.052306756 0.012929277
0.036891539 0.051864225 0.013682389
0.040621903 0.0508877 0.014291141
-0.036120161 0.056221824 0.014210133
-0.03184944 0.056868203 0.013508394
-0.027325694 0.057200763 0.012907589
-0.022392562 0.057431675 0.012745716
-0.017537054 0.05756465 0.0126716
-0.012616859 0.057517614 0.01265685
-0.0076051825 0.05755927 0.012589664
-0.002517578 0.057614364 0.01257951
0.0025204478 0.05755157 0.012619068
0.0075860461 0.05748418 0.012656913
0.012578986 0.057539318 0.012626552
0.017504323 0.057513304 0.012638821
0.022336058 0.057344686 0.012740214
0.027261822 0.057135485 0.013186565
0.031831343 0.056451235 0.013898239
0.03636346 0.055582453 0.014532584
-0.030539036 0.060071263 0.014861659
-0.026955089 0.061029054 0.014013693
-0.022123767 0.061602533 0.013432635
-0.017470367 0.061967641 0.013102769
-0.012457659 0.062118024 0.013012676
-0.0075744786 0.062158301 0.012809013
-0.002566023 0.062252004 0.012766807
0.0025298402 0.062196609 0.012772112
0.0075176102 0.062105667 0.012867064
0.012466996 0.062068306 0.013059651
0.017291799 0.061919633 0.013358731
0.022294518 0.061428618 0.013912964
0.026280897 0.060845781 0.014261214
-0.01688779 0.065617144 0.014268611
-0.012211102 0.065816201 0.014191852
-0.007602789 0.065948166 0.014031629
-0.0023736672 0.066012613 0.014039651
0.0023940145 0.066348933 0.013806718
0.0075122458 0.066010952 0.013955593
0.011598861 0.066122234 0.014183776
0.016541412 0.065356269 0.014573187
-0.015481024 -0.060238108 0.019221382
-0.012932303 -0.060369488 0.019456444
-0.0073059662 -0.060892388 0.019345213
-0.0021690582 -0.060593598 0.01916601
0.002278809 -0.060464464 0.019283896
0.007278434 -0.06070137 0.019550841
-0.026066227 -0.0556667 0.019129599
-0.021960761 -0.056114733 0.018450929
-0.017364392 -0.05673511 0.017978763
-0.012521987 -0.05716002 0.018040989
-0.0075493436 -0.057229877 0.017950244
-0.0024854285 -0.057234246 0.017865626
0.0025261967 -0.057193764 0.017998409
0.007482287 -0.057099864 0.017966112
0.01243132 -0.056813441 0.018124431
0.01724758 -0.05642027 0.018570267
0.021356255 -0.055806946 0.018897222
-0.035972591 -0.050368711 0.019420953
-0.031800047 -0.051241998 0.01842168
-0.027232233 -0.052101087 0.017855247
-0.022369515 -0.052445516 0.017660225
-0.017538266 -0.052495632 0.017680978
-0.01259682 -0.052534416 0.017675331
-0.0075805569 -0.052601397 0.01756845
-0.0025345508 -0.05259221 0.017510828
0.0025296635 -0.052537326 0.017592324
0.0075266548 -0.052535329 0.017650053
0.012581886 -0.052511189 0.017643431
0.017423168 -0.052466203 0.017636811
0.022328947 -0.052313831 0.017746283
0.027169771 -0.051747665 0.018080082
0.031483348 -0.050813034 0.01877295
-0.041512862 -0.046075836 0.018785117
-0.037111573 -0.047024436 0.018023398
-0.032309208 -0.047504082 0.017669952
-0.027373265 -0.047529601 0.017610449
-0.022431757 -0.047613431 0.017533001
-0.017573314 -0.04764631 0.017516172
-0.012631743 -0.047779612 0.017371932
-0.0076110195 -0.047992967 0.017200567
-0.0026069083 -0.048074026 0.017140094
0.0025655904 -0.048038438 0.017169336
0.007661032 -0.047889546 0.017279597
0.012641214 -0.047742344 0.017493391
0.017576475 -0.047681015 0.017524108
0.022473399 -0.047520347 0.017552137
0.027368264 -0.047454711 0.017714625
0.032333553 -0.047334094 0.017757028
0.03675165 -0.046570756 0.018429723
0.040443048 -0.04538241 0.019284392
-0.046488218 -0.041337177 0.018576864
-0.042330176 -0.042250954 0.017828899
-0.03745836 -0.042421333 0.017647382
-0.032449093 -0.042542741 0.017539918
-0.027467454 -0.042700291 0.017395662
-0.022590214 -0.043073859 0.017027359
-0.017709814 -0.043546002 0.016482748
-0.012948217 -0.043965895 0.016043257
-0.0077864649 -0.044276875 0.015787801
-0.0024501246 -0.044437002 0.015634606
0.0027589689 -0.044355966 0.015677791
0.0077654063 -0.044148527 0.015836813
0.012725449 -0.043775201 0.01625306
0.017748654 -0.043257315 0.016795618
0.022613376 -0.042861681 0.017292254
0.027393498 -0.042609591 0.017534498
0.032394141 -0.042495705 0.017630409
0.037366301 -0.042393699 0.017698569
0.041779336 -0.041874908 0.018284278
0.045946125 -0.040901408 0.019582907
-0.051167887 -0.036448509 0.018704604
-0.047305357 -0.03728012 0.017699851
-0.042493485 -0.037364058 0.017612617
-0.03749055 -0.037493918 0.017517259
-0.032684188 -0.03781363 0.017215403
-0.028032904 -0.038354263 0.016460178
-0.0232982 -0.039337024 0.015594228
0.018862762 -0.039499849 0.01525839
0.023026999 -0.038780231 0.015998909
0.027805265 -0.038065489 0.016856635
0.032529756 -0.037669856 0.017364541
0.037421431 -0.037450548 0.017583527
0.042440291 -0.03737174 0.017684165
0.046734225 -0.036761828 0.018224606
0.050557483 -0.035662342 0.019579951
-0.055937115 -0.031361997 0.018880367
-0.052276183 -0.032170925 0.017871462
-0.047524925 -0.032370374 0.017607164
-0.042575676 -0.03239876 0.017543893
-0.037869554 -0.032826591 0.017064434
-0.033395518 -0.033753812 0.016195813
-0.02920134 -0.034782432 0.015090479
0.02889633 -0.034056328 0.015489066
0.033053387 -0.033188138 0.016479459
0.037669118 -0.032613724 0.017333874
0.042574104 -0.032431476 0.017566621
0.047449108 -0.032356963 0.017673343
0.051281739 -0.031756364 0.018618187
-0.060789164 -0.025340863 0.019678671
-0.056713991 -0.027199801 0.017954821
-0.052415155 -0.027354248 0.017661676
-0.047577854 -0.027382854 0.017559905
-0.042944916 -0.027631182 0.017112061
-0.038612422 -0.028544467 0.015988156
0.034331523 -0.029150244 0.015643714
0.038144719 -0.027933938 0.016575862
0.042682238 -0.027478173 0.017373614
0.047558896 -0.027388277 0.017609086
0.052051049 -0.027131086 0.017782848
0.055753879 -0.026402237 0.019235449
-0.060879994 -0.021987226 0.019031432
-0.057287976 -0.022326887 0.017688449
-0.052564502 -0.022403713 0.017655605
-0.047763307 -0.022539848 0.01739241
-0.043605156 -0.023117891 0.016193457
0.039095622 -0.023685124 0.015687738
0.04304406 -0.02276198 0.01685795
0.047630943 -0.022419779 0.017566275
0.052451409 -0.022470336 0.017562222
0.056312334 -0.022066217 0.018485004
-0.0614524 -0.017076727 0.018131139
-0.057377573 -0.017480297 0.017699922
-0.05259956 -0.017555999 0.01753296
-0.048358493 -0.017823316 0.016937757
-0.044561233 -0.019284777 0.015451966
0.043704443 -0.018125501 0.016130436
0.047820751 -0.017561935 0.017448096
0.052547976 -0.017581273 0.017587952
0.057046205 -0.017362006 0.017715363
0.060241401 -0.01659045 0.01887621
-0.065644316 -0.011706483 0.01952167
-0.062049624 -0.012558587 0.018027034
-0.057505876 -0.012590816 0.017653329
-0.052731726 -0.012722384 0.017474789
-0.049028579 -0.013088227 0.016253928
0.044600312 -0.013632741 0.015457409
0.048271462 -0.012719966 0.016924448
0.052647583 -0.012658034 0.0175476
0.057431232 -0.012492221 0.017620256
0.060726363 -0.012064395 0.018862855
-0.065858416 -0.0070464406 0.018775895
-0.06216047 -0.0074870936 0.017896663
-0.057531826 -0.0075697191 0.017511964
-0.053002276 -0.0077360747 0.017163221
-0.049376715 -0.0080252616 0.015485847
0.048634306 -0.0077975849 0.0164169
0.052718673 -0.0075939698 0.017512536
0.057562109 -0.007560832 0.017587509
0.06133344 -0.007303542 0.018275721
-0.065936685 -0.0024043992 0.01863589
-0.06237502 -0.0025331064 0.017694192
-0.057600573 -0.0025443069 0.017542388
-0.053269278 -0.0026509091 0.016906817
-0.049902633 -0.004711702 0.015277587
0.049144886 -0.0029942014 0.015964687
0.052851889 -0.002594474 0.017414562
0.057547484 -0.0025451842 0.017617082
0.061677765 -0.002385464 0.018044407
-0.065974541 0.0026651863 0.018461574
-0.062412921 0.0025458818 0.017663406
-0.057553098 0.0025412606 0.017601671
-0.053456664 0.0024990262 0.01669332
-0.049852509 0.00059718877 0.015006137
0.049411718 0.0022281006 0.015776608
0.052985761 0.0025202087 0.017289253
0.057540756 0.0025542357 0.017638179
0.061823536 0.0025176045 0.017870504
0.06548325 0.0027485774 0.019802364
-0.066031404 0.0076008388 0.018301547
-0.062403206 0.0075352164 0.017619696
-0.057545625 0.0075933984 0.017565249
-0.053503558 0.007611244 0.016678892
0.049402166 0.0077008982 0.01555531
0.052976664 0.007578569 0.017285759
0.057493918 0.0075983331 0.017698796
0.061710499 0.0075173881 0.017980162
0.065005697 0.0053930292 0.019923205
-0.065909587 0.012444893 0.018537115
-0.062379841 0.012491656 0.017559571
-0.057602379 0.012619507 0.017514568
-0.053342093 0.012713599 0.016866243
0.04930361 0.012952 0.01585589
0.052872695 0.012582891 0.017333817
0.057466179 0.012643549 0.017620662
0.061752494 0.012467521 0.017961377
-0.065594964 0.016872544 0.018672632
-0.062343452 0.017490081 0.01767166
-0.057527076 0.017544009 0.017647425
-0.053141203 0.017720241 0.017042955
-0.049589887 0.01843841 0.015423442
0.048921969 0.017948028 0.016214475
0.052711129 0.017576227 0.017442446
0.057394251 0.017599186 0.017592601
0.061537832 0.017331209 0.018176606
-0.065217339 0.02111291 0.019253124
-0.061955396 0.022264369 0.017815826
-0.057531897 0.022453262 0.017610351
-0.052830115 0.022511341 0.017374696
-0.04913184 0.023000123 0.015956268
0.048542794 0.022748936 0.016704492
0.05259918 0.022467585 0.017563397
0.057431571 0.022375412 0.017597817
0.061162844 0.0222583 0.018560866
-0.061360359 0.027176986 0.018309426
-0.057376437 0.02734377 0.017562572
-0.052636582 0.027428299 0.017541954
-0.048455417 0.027795607 0.016620519
-0.044731807 0.029722508 0.015651207
0.044234082 0.028247207 0.015798584
0.048020657 0.027596276 0.017151071
0.052614015 0.027432343 0.017632881
0.057334054 0.027350551 0.017660271
0.060772844 0.026800903 0.018812582
-0.060712926 0.031861614 0.019152999
-0.057323277 0.032305572 0.017643869
-0.052587245 0.032442294 0.017605562
-0.047884151 0.032587849 0.017268587
-0.043860462 0.033362202 0.015956433
0.039774913 0.034729391 0.015379928
0.043473788 0.032940775 0.016581545
0.047644999 0.032471959 0.017466616
0.052502226 0.032416105 0.017576179
0.056928802 0.032172099 0.01790233
0.0604904 0.030566767 0.01948237
-0.060429864 0.035482988 0.01989332
-0.056691285 0.037061106 0.018095866
-0.05253179 0.037443656 0.017620819
-0.047596551 0.037476696 0.017560869
-0.043095499 0.037847694 0.016935971
-0.038903311 0.038913935 0.015796434
0.038677007 0.038552351 0.016167983
0.042802159 0.037617192 0.017280854
0.047571387 0.037471261 0.017566608
0.052412357 0.037336994 0.017672211
0.056106258 0.03666468 0.018671287
-0.055893786 0.041069441 0.018855071
-0.052246112 0.042170938 0.017853966
-0.047538951 0.042449035 0.017620303
-0.042589795 0.042580623 0.017548798
-0.037998334 0.043037057 0.016893722
-0.03376478 0.044016264 0.015875127
0.033376399 0.043608632 0.016009446
0.037834242 0.042873863 0.017189374
0.042531416 0.042523731 0.01762297
0.047512215 0.042485878 0.017591953
0.051797487 0.041983362 0.018136533
0.055602394 0.040218838 0.019562431
-0.050888512 0.046294387 0.018548319
-0.047247294 0.047360953 0.017604023
-0.042433374 0.047573574 0.017639516
-0.037485793 0.047629796 0.017529797
-0.032790847 0.048032664 0.017042242
-0.028188676 0.04878493 0.016080372
-0.023856051 0.049565632 0.01531894
0.023712065 0.049328241 0.015501561
0.028069004 0.048571467 0.016317829
0.032636415 0.047866136 0.017210029
0.03747654 0.047619157 0.017547218
0.042397626 0.047448482 0.017610749
0.047149371 0.047250882 0.018207468
0.050792806 0.046585925 0.018994141
-0.046632454 0.05149762 0.018371483
-0.042307828 0.052309938 0.017688928
-0.037450753 0.052616581 0.017595615
-0.0324178 0.052670825 0.017580876
-0.027492914 0.052843556 0.017357716
-0.022657674 0.053266145 0.016811673
-0.017913548 0.053866904 0.016094675
-0.01319877 0.054413322 0.015653362
-0.0081713656 0.054588947 0.0152514
-0.002873166 0.054803967 0.01514404
0.0023330811 0.054840475 0.015248664
0.0077045504 0.054637797 0.015402379
0.012849255 0.054241065 0.015764832
0.017907154 0.053666033 0.016300874
0.022668449 0.053100105 0.016906369
0.027466355 0.052659009 0.017461814
0.032422464 0.052582882 0.017571285
0.037424043 0.052493215 0.017706484
0.041972488 0.052075397 0.018116912
0.046118796 0.051018644 0.01903674
-0.041281067 0.056192484 0.018713305
-0.037087623 0.057000596 0.017828522
-0.032361571 0.057403799 0.01764556
-0.027370423 0.057559058 0.017584592
-0.022468513 0.05756278 0.017595945
-0.017655972 0.057651583 0.017461305
-0.012595722 0.057936922 0.017195538
-0.0076581803 0.058118507 0.016993411
-0.0025421858 0.058165591 0.016845295
0.0025617648 0.058155403 0.016878715
0.0076819211 0.058052637 0.017056359
0.01266464 0.057815827 0.017234936
0.017541159 0.057622667 0.017517401
0.022423966 0.057552963 0.017603843
0.027304716 0.057506029 0.017594026
0.032274481 0.057209823 0.017812816
0.037021711 0.056862012 0.018316599
0.040729843 0.056259703 0.019181671
-0.035681065 0.060569618 0.019111622
-0.031875212 0.06122506 0.018109385
-0.027302807 0.062056594 0.017796809
-0.022419116 0.062336016 0.017627263
-0.017551875 0.062343363 0.017550364
-0.012649534 0.06249363 0.017624848
-0.0075849104 0.062476512 0.01755341
-0.0025596153 0.062473312 0.017576626
0.00251257 0.062429499 0.017549308
0.007569334 0.062447224 0.01758912
0.012601308 0.062380906 0.017600849
0.017544134 0.062386774 0.017634746
0.022362268 0.062331449 0.017757848
0.027238069 0.061963353 0.018086622
0.031836055 0.061389685 0.018882334
0.035734657 0.06065423 0.019391101
-0.026575502 0.06531547 0.019205382
-0.022047523 0.065980665 0.01838398
-0.017373467 0.06661988 0.017911728
-0.012434765 0.066966265 0.017840737
-0.0075187585 0.067134835 0.017715219
-0.0024885405 0.067252688 0.017698715
0.0024923675 0.067143925 0.017712746
0.0075171869 0.06705647 0.017838337
0.012472598 0.066849358 0.01800658
0.017141841 0.066451482 0.018065628
0.022025721 0.066042319 0.018669399
0.026716048 0.065299615 0.018994451
-0.011661959 0.070271641 0.019411439
-0.0078395661 0.070459314 0.019303519
-0.0024055231 0.070700616 0.019061403
0.0023375067 0.070801437 0.019204136
0.0073394165 0.070628941 0.018949162
0.011846384 0.070447192 0.019369693
-0.021212738 -0.060483858 0.023711583
-0.017137986 -0.060839534 0.023094609
-0.01243474 -0.06102654 0.022923831
-0.0075253109 -0.061322272 0.022823451
-0.0025464685 -0.061423182 0.022731341
0.0024984493 -0.061419293 0.022844894
0.0073892251 -0.061361425 0.022919573
0.012006331 -0.061023299 0.023368431
0.016309248 -0.060382899 0.023890289
0.020628249 -0.060322728 0.024265088
-0.031422634 -0.055626955 0.023687121
-0.026983168 -0.056238528 0.022804987
-0.022304086 -0.057270434 0.022560285
-0.017495809 -0.057509076 0.022595285
-0.012551419 -0.057521109 0.02245884
-0.0075437115 -0.05750953 0.022457611
-0.0025323739 -0.057498679 0.022420254
0.0025434117 -0.057494946 0.022462759
0.007587513 -0.057477895 0.022478599
0.012603763 -0.057518635 0.022529952
0.017485838 -0.057381034 0.022595668
0.022285784 -0.056848653 0.022817489
0.026856555 -0.056130297 0.023385083
0.031437088 -0.055396702 0.02429872
-0.041298658 -0.050831504 0.024119753
-0.037058476 -0.051464152 0.023109255
-0.032220129 -0.052235149 0.022714883
-0.027379891 -0.052508011 0.022480803
-0.022468967 -0.052525081 0.022481369
-0.017561037 -0.052583754 0.022446664
-0.012629827 -0.052708816 0.022391457
-0.0076327617 -0.052785955 0.022253357
-0.0025342959 -0.052885525 0.022227094
0.0025687646 -0.052902393 0.022267589
0.0076584327 -0.052813575 0.022283942
0.012620319 -0.052637346 0.022414153
0.0175397 -0.052578051 0.022523016
0.022419823 -0.052483939 0.02254352
0.027376095 -0.052426014 0.022550667
0.032174345 -0.052001569 0.022747731
0.036694001 -0.051345263 0.023582745
-0.046255622 -0.046165422 0.023558961
-0.042225905 -0.04701205 0.022814292
-0.03743048 -0.047477853 0.022447413
-0.032388963 -0.047516309 0.022513349
-0.027422424 -0.047636945 0.022389954
-0.02257736 -0.047962572 0.022074386
-0.01772956 -0.048597984 0.021659516
-0.012814342 -0.04909699 0.021253409
-0.0077666221 -0.049332418 0.020917926
-0.0026378215 -0.049537528 0.020723278
0.0026587113 -0.049489003 0.020719798
0.0080060409 -0.049221411 0.021000812
0.012817103 -0.048913158 0.021348858
0.017730165 -0.04838733 0.021846533
0.022543738 -0.047881011 0.022245931
0.027377954 -0.047573391 0.022479527
0.032410346 -0.047529221 0.022471638
0.037212767 -0.047344726 0.022641927
0.041523486 -0.046442859 0.023188883
0.045479771 -0.04607892 0.024605654
-0.05124364 -0.041231353 0.023490766
-0.047370642 -0.042341467 0.022675589
-0.042454477 -0.042462345 0.02249293
-0.037485849 -0.0425281 0.022429386
-0.032654807 -0.042890154 0.022158053
-0.027906487 -0.043634869 0.021457409
-0.023710595 -0.044453748 0.020717962
0.018834157 -0.044807192 0.020113552
0.023376642 -0.044162173 0.021132436
0.027918894 -0.043357611 0.021848114
0.03250571 -0.042694665 0.022279678
0.0374141 -0.042516414 0.022468967
0.042453025 -0.042392556 0.022604406
0.046744894 -0.041650508 0.022987798
0.050363526 -0.040524628 0.02449603
-0.055844162 -0.035889708 0.023546774
-0.052308124 -0.037187811 0.022708455
-0.047476217 -0.037412774 0.022484524
-0.042570543 -0.037519827 0.022404779
-0.037930004 -0.038015649 0.02192324
-0.033640239 -0.038928438 0.020989757
0.028862244 -0.039724771 0.020424116
0.033293206 -0.038450755 0.021265423
0.037710346 -0.037680067 0.022198446
0.042472471 -0.037435222 0.022528077
0.047413222 -0.037301745 0.02257283
0.051356226 -0.036436651 0.023412015
-0.060457181 -0.03066287 0.024347603
-0.056833699 -0.031981934 0.022987317
-0.052443437 -0.03233847 0.022495339
-0.047596313 -0.032425791 0.022452762
-0.043118149 -0.032952618 0.021909559
-0.039066508 -0.034020949 0.020673649
0.034236617 -0.034988523 0.020151742
0.038581848 -0.033415094 0.021279356
0.042764954 -0.032579754 0.022266945
0.047548901 -0.032406047 0.022492701
0.052231394 -0.032191452 0.022738
0.055902909 -0.031294651 0.023956371
-0.061130919 -0.026584527 0.023064822
-0.057508364 -0.027411861 0.022511763
-0.052615646 -0.027359981 0.022412691
-0.04807565 -0.027734047 0.022160364
-0.044017658 -0.028647801 0.02068918
0.039286826 -0.029392447 0.020017037
0.04340563 -0.027999967 0.021425862
0.047699284 -0.027471835 0.022427998
0.052560069 -0.02739637 0.022457821
0.056749389 -0.027103065 0.022960072
0.060228147 -0.02569925 0.024458013
-0.065438539 -0.020479348 0.024135964
-0.062132381 -0.022256399 0.022791142
-0.057439338 -0.022455053 0.022473997
-0.052671861 -0.022520581 0.022386163
-0.048838489 -0.023155134 0.021149566
0.044500493 -0.023979502 0.02064513
0.048129302 -0.022762734 0.022016732
0.052599568 -0.022407379 0.022517141
0.057364896 -0.022325398 0.022646511
0.060980625 -0.021717586 0.02377701
-0.06576179 -0.016707022 0.02338572
-0.062344551 -0.017433759 0.022558141
-0.057567336 -0.017551525 0.022422964
-0.053171564 -0.017835137 0.021920633
-0.049676631 -0.019084252 0.020539591
0.048876014 -0.018094586 0.02136964
0.052752614 -0.017606229 0.022370968
0.057506975 -0.01747185 0.022526627
0.061463289 -0.01731614 0.023097472
-0.066277884 -0.012296262 0.022809515
-0.062374674 -0.012568849 0.022483412
-0.057638798 -0.012614927 0.022448013
-0.053862758 -0.012998777 0.021468569
0.049457021 -0.013685257 0.020694485
0.053145796 -0.012725178 0.02209175
0.057494149 -0.012599305 0.022504276
0.062030185 -0.012463949 0.022850296
0.065254673 -0.011524347 0.024291378
-0.066732608 -0.0074342177 0.022706855
-0.062386159 -0.0075287451 0.022492573
-0.057810582 -0.0076983864 0.022256581
-0.054453567 -0.0081318384 0.02089477
0.053518675 -0.0078372722 0.021684518
0.0575222 -0.0075522559 0.022492971
0.062327702 -0.0074850242 0.02268618
0.065736912 -0.0068775858 0.023922503
-0.07011468 -0.0031561272 0.024677381
-0.067006223 -0.0025144781 0.022761418
-0.062437695 -0.0025270851 0.022472309
-0.058014166 -0.0026458709 0.022018258
-0.054657187 -0.0030878172 0.020397255
0.053885557 -0.0028936116 0.021275172
0.057622109 -0.0025159253 0.022459019
0.062373694 -0.0024829768 0.022508502
0.065841384 -0.0023092988 0.023597501
-0.07009916 0.0012620232 0.024609879
-0.067113981 0.0024760212 0.022693165
-0.062455006 0.002558884 0.022392901
-0.058259949 0.0024674684 0.022018924
-0.054949798 0.0014305374 0.020010963
0.054217417 0.002344562 0.021144586
0.057645619 0.0024843721 0.022409227
0.062328886 0.0026077018 0.022491608
0.066008709 0.0025038016 0.02319812
-0.070247293 0.0088178441 0.024784248
-0.06706354 0.0075469348 0.022701737
-0.062457144 0.0076117404 0.02239009
-0.058282826 0.0075691883 0.022020394
0.054251388 0.007647166 0.021073941
0.057738565 0.0076222797 0.022378221
0.062380351 0.0076102847 0.022400651
0.066050485 0.007514392 0.023223503
-0.06685055 0.012504002 0.022763589
-0.062388707 0.012623935 0.022486361
-0.058089219 0.012603954 0.021980831
-0.054719478 0.0136915 0.020216133
0.05408318 0.012882108 0.02111352
0.057601091 0.012599896 0.022288192
0.062455621 0.012558685 0.022472886
0.065986238 0.012537838 0.023257943
-0.06652984 0.017411305 0.022682583
-0.06230852 0.017613785 0.02247053
-0.05785995 0.017586567 0.022202592
-0.054501843 0.018065272 0.020561829
0.053922378 0.017685881 0.021396007
0.057524543 0.017540228 0.022482054
0.062366195 0.017443102 0.022509564
0.065725967 0.017152643 0.023309365
-0.06594792 0.022127159 0.023077767
-0.062405027 0.022499252 0.022582196
-0.057620838 0.022505637 0.022388635
-0.054102082 0.022945289 0.021130443
0.053525753 0.022669472 0.021893758
0.057545833 0.022464426 0.022387633
0.062332571 0.022344831 0.022662941
0.06552805 0.021757308 0.023661444
-0.06547612 0.02663723 0.02404172
-0.062363029 0.027337793 0.022557931
-0.057553671 0.027414478 0.02239676
-0.053532887 0.027721403 0.021816367
0.049289137 0.028376253 0.020836113
0.052897971 0.027521743 0.022220505
0.057449318 0.027392289 0.022483837
0.061807893 0.027280865 0.022836201
0.06526164 0.025520263 0.024188183
-0.0651647 0.030685678 0.024430048
-0.061810602 0.032164011 0.02279171
-0.057508737 0.032399539 0.022534983
-0.052817177 0.032580763 0.022263749
-0.049208701 0.033419475 0.020936385
0.048605327 0.032961335 0.021534972
0.05257386 0.032409143 0.022429265
0.057455238 0.032398578 0.022569802
0.060993355 0.031838734 0.023161637
-0.060935076 0.036398433 0.023307178
-0.057511572 0.037419707 0.022528687
-0.052585207 0.037449144 0.022498284
-0.048273437 0.037875134 0.021929776
-0.044409189 0.039327435 0.020489279
0.044041261 0.038509015 0.02100745
0.047833454 0.037615504 0.022221748
0.052533414 0.037453163 0.022547988
0.057131372 0.037199799 0.022794116
0.060437866 0.036027443 0.024270779
-0.056728035 0.041878209 0.022956342
-0.052570514 0.042432807 0.022522574
-0.047623947 0.042581797 0.022432296
-0.04337009 0.043237746 0.02173687
-0.039452519 0.044459168 0.020337844
0.038916778 0.044068858 0.020763492
0.043002732 0.042931758 0.022044718
0.04756958 0.042501252 0.022437461
0.052481234 0.042400993 0.022565296
0.056310821 0.041760273 0.02327737
-0.055629019 0.045583196 0.023740077
-0.052048907 0.047144685 0.022780383
-0.047550432 0.047514956 0.022416493
-0.042622361 0.047670778 0.022416215
-0.038180586 0.04823564 0.021732397
-0.034062315 0.049342256 0.020710094
0.03376133 0.049093232 0.020806933
0.03794051 0.048054438 0.021907268
0.042524077 0.047587562 0.022468474
0.047497146 0.047518756 0.022587007
0.051846068 0.047054257 0.022829505
-0.050625388 0.051034231 0.023347806
-0.047276057 0.052214243 0.022732915
-0.042506948 0.052587707 0.022500968
-0.037491839 0.052619345 0.022457257
-0.032782421 0.053113092 0.022019979
-0.028385891 0.05398554 0.021122146
-0.024403075 0.054593623 0.020374171
0.023871846 0.054483887 0.020245839
0.028022943 0.053843301 0.021320408
0.03265563 0.05294377 0.022161288
0.03750268 0.052561734 0.022480726
0.04247611 0.052509502 0.0226133
0.046892468 0.051711485 0.022866866
0.050814904 0.050439652 0.023938932
-0.046099279 0.055939347 0.023630224
-0.042125635 0.056999199 0.022793738
-0.037449002 0.057533726 0.022495728
-0.032411605 0.057478748 0.022474859
-0.02749438 0.057715166 0.022368053
-0.022676125 0.058243118 0.021949602
-0.017935514 0.058797106 0.021410201
-0.013085124 0.059298687 0.020754514
-0.0081240851 0.059561443 0.020364733
-0.0036068126 0.059727084 0.020231424
0.0031237695 0.059709698 0.020332253
0.00848745 0.059595078 0.020494651
0.012732119 0.059180763 0.020831695
0.017869648 0.05864707 0.021516969
0.022626834 0.058014654 0.022042383
0.027458265 0.057627894 0.022366147
0.032400887 0.057489514 0.022549512
0.03736702 0.057520419 0.022605257
0.041803643 0.056745145 0.023032986
0.045862351 0.055459581 0.023845265
-0.040584467 0.060555685 0.023862718
-0.036995716 0.061484847 0.023163263
-0.032335535 0.06224113 0.022607962
-0.027373809 0.062398527 0.022453405
-0.022502918 0.062433477 0.022490256
-0.017646689 0.062493727 0.022306181
-0.012703288 0.062678255 0.022329587
-0.0076117846 0.062889017 0.022132719
-0.0025109602 0.063013688 0.021989455
0.0026010696 0.062971987 0.0220707
0.0076394263 0.062792547 0.022159716
0.012651561 0.062622547 0.022314249
0.017531615 0.062420003 0.022391235
0.022390066 0.062451646 0.022523651
0.027392281 0.062417522 0.022487473
0.032320268 0.062207218 0.022741741
0.036571257 0.061249826 0.023171244
-0.031553976 0.065570958 0.023819206
-0.026989134 0.066386268 0.023012394
-0.022302339 0.067083813 0.022684615
-0.017484795 0.067346372 0.02248214
-0.012535377 0.067379169 0.022430573
-0.0075574941 0.067279033 0.022463454
-0.0024973957 0.067318887 0.022474857
0.002520446 0.067316696 0.022461114
0.0076184552 0.06735231 0.022499809
0.012564725 0.067380719 0.022495532
0.017481202 0.067315236 0.022580136
0.022334926 0.067002006 0.0226859
0.026830532 0.066188037 0.02316409
0.030999551 0.065400854 0.023922389
-0.020794265 0.070420541 0.02356674
-0.017167905 0.070687093 0.023399411
-0.012280479 0.071113758 0.022903174
-0.0074560218 0.071426213 0.022876373
-0.0025205875 0.071579166 0.022759242
0.0024588017 0.071574919 0.022874201
0.0074188416 0.071414344 0.022788443
0.012422772 0.071120307 0.022972489
0.016871542 0.070748381 0.023641663
0.021162353 0.070391826 0.024149606
-0.010587372 -0.06541986 0.029806042
-0.0073965695 -0.065092772 0.028726134
-0.0025223098 -0.065638833 0.02885914
0.0022459785 -0.065485477 0.028770698
0.0077183913 -0.065124333 0.029467816
-0.030283857 -0.060000166 0.029683148
-0.026294084 -0.060674895 0.028679419
-0.022076417 -0.061178669 0.02807367
-0.017383812 -0.061610483 0.027657848
-0.01251029 -0.062106203 0.027655745
-0.0075733284 -0.062276725 0.0276624
-0.0025525067 -0.062362541 0.027553631
0.002513235 -0.062350392 0.027565571
0.0075045419 -0.062237121 0.027562153
0.012355658 -0.061874334 0.027627911
0.017364006 -0.061185263 0.027918085
0.021959422 -0.060733728 0.028237008
0.026274428 -0.060073629 0.029053383
-0.036337893 -0.055872198 0.028485585
-0.03210298 -0.05666643 0.027802898
-0.027231745 -0.057307661 0.027533574
-0.022421336 -0.057467755 0.027428644
-0.017473798 -0.057468999 0.027456831
-0.012584267 -0.057471566 0.027471837
-0.0075867297 -0.057539683 0.027394859
-0.0025408736 -0.057595279 0.027385885
0.0025763714 -0.057560008 0.027338125
0.0076110465 -0.057474177 0.027362017
0.012610042 -0.057470404 0.027483977
0.017544651 -0.057458241 0.027442085
0.022420485 -0.05749882 0.027436726
0.027265854 -0.057049934 0.027580425
0.031907134 -0.05612969 0.027921606
0.035540417 -0.05516978 0.02865277
-0.045707714 -0.050459966 0.028847957
-0.041809093 -0.051524505 0.02783525
-0.037358873 -0.052426003 0.027588889
-0.032424599 -0.052514393 0.027445506
-0.02736189 -0.052529134 0.027366081
-0.02251176 -0.052798916 0.027280878
-0.017758299 -0.053228214 0.027045261
-0.012816418 -0.053791888 0.026819183
-0.0077908039 -0.054125357 0.02650965
-0.0024732975 -0.054220874 0.026225127
0.0025905448 -0.05414157 0.026175708
0.0077556632 -0.054032139 0.026572349
0.01277461 -0.053611055 0.026932631
0.017676 -0.053033229 0.027103711
0.022522828 -0.052651398 0.027342713
0.027371202 -0.05244448 0.027483422
0.032371167 -0.052540161 0.027440274
0.037116025 -0.052063063 0.027706299
0.041314416 -0.051157646 0.028306819
-0.050497696 -0.045759179 0.029071571
-0.046887174 -0.046891574 0.027793806
-0.042496044 -0.04756996 0.027457675
-0.03745912 -0.04756362 0.027377138
-0.032571673 -0.047801025 0.02726852
-0.027804049 -0.048610564 0.026829557
-0.023408134 -0.049375758 0.026004085
-0.019670155 -0.04983576 0.025406063
0.019100409 -0.049658488 0.025464667
0.023124948 -0.049133476 0.026308864
0.027693504 -0.048256326 0.026937045
0.032436691 -0.047615629 0.027363796
0.037431706 -0.047532529 0.027512539
0.042300928 -0.047268078 0.02755923
0.046296719 -0.046191063 0.027955694
-0.055347692 -0.040774018 0.0284517
-0.052032486 -0.04196009 0.027847955
-0.047566451 -0.042548683 0.027432771
-0.042503532 -0.042535968 0.027379487
-0.037831221 -0.04313324 0.027029183
-0.033452336 -0.044136964 0.026035305
-0.029606014 -0.044903107 0.02506543
0.029373748 -0.044657003 0.025332147
0.033187803 -0.043689989 0.02641833
0.037657604 -0.042713232 0.027278382
0.04246847 -0.042512719 0.02743534
0.047374882 -0.042373795 0.02760566
0.051183604 -0.041441228 0.028179944
-0.056648578 -0.036715552 0.027899826
-0.052591737 -0.037455432 0.027441211
-0.047597442 -0.037463389 0.027361074
-0.043213725 -0.038086046 0.026843231
-0.039058447 -0.039284468 0.025783151
0.034890443 -0.039678052 0.025177715
0.0386336 -0.038793955 0.026278993
0.042790703 -0.037707992 0.027230367
0.047536865 -0.03743333 0.027458578
0.0522516 -0.037213448 0.027646584
0.055562958 -0.035961188 0.028235279
-0.060814023 -0.031286892 0.02798835
-0.057508562 -0.032354739 0.027505297
-0.052574273 -0.032422327 0.027403947
-0.048160613 -0.032880962 0.026993457
-0.044412699 -0.033999551 0.025573762
0.043878473 -0.033435188 0.026342666
0.047743469 -0.032531314 0.02728875
0.052578397 -0.032418985 0.027392302
0.056736253 -0.032007061 0.027747324
0.060207441 -0.030415067 0.028933557
-0.065359503 -0.02525189 0.029284401
-0.061922282 -0.027202154 0.027612878
-0.057512496 -0.027326062 0.027406912
-0.052853502 -0.027580217 0.027195446
-0.049083494 -0.028656023 0.026004735
0.044742174 -0.029825831 0.025304679
0.048654396 -0.028050553 0.026725573
