# .PCD v0.7 - Point Cloud Data file format
VERSION 0.7
FIELDS x y z
SIZE 4 4 4
TYPE F F F
COUNT 1 1 1
WIDTH 1303
HEIGHT 1
VIEWPOINT 0 0 0 1 0 0 0
POINTS 1303
DATA ascii
0.032423094 -0.03189978 0.017448464
0.037407145 -0.03183993 0.01748191
0.042523768 -0.031863775 0.017495064
0.047658987 -0.03210789 0.017513609
0.052637305 -0.032160882 0.017522918
0.057553429 -0.031725463 0.017653113
0.06150854 -0.0310841 0.017653815
-0.020849664 -0.025965272 0.017679114
-0.017474739 -0.02761614 0.017568639
-0.012869005 -0.028711801 0.017469684
-0.0079496484 -0.029418578 0.017639218
-0.0026521881 -0.02956007 0.017770937
0.0027276252 -0.029549703 0.017970197
0.0075355466 -0.029514147 0.018074282
0.013030536 -0.029601308 0.01747885
0.017862597 -0.029768236 0.017315987
0.021838034 -0.029814703 0.017228002
0.029046096 -0.029852534 0.018458864
0.032726668 -0.0296988 0.016883144
0.038208161 -0.029678676 0.017320737
0.041678302 -0.029718021 0.017322745
0.047731336 -0.029850971 0.018207978
0.051935282 -0.029829249 0.018021537
0.058061786 -0.029631963 0.018208003
0.063166685 -0.028549861 0.017544966
0.066676483 -0.026626108 0.017518571
-0.025120273 -0.020858277 0.018992502
-0.022459429 -0.022230152 0.017702317
-0.018978752 -0.023899054 0.01756314
0.06798058 -0.022687802 0.01756157
0.070467301 -0.02155765 0.017378459
-0.025742607 -0.016791955 0.017943703
-0.023400985 -0.017590653 0.017598826
0.068701454 -0.017623212 0.017677503
0.07056082 -0.017667495 0.017438255
-0.025675749 -0.012665929 0.017562209
-0.023618516 -0.012587762 0.017619468
0.068669528 -0.012572627 0.017644752
0.070547119 -0.012777387 0.01720616
-0.025393598 -0.0077978224 0.017684484
-0.023336302 -0.0074562728 0.017666463
0.068586603 -0.0075770505 0.017725788
0.070413522 -0.007679658 0.017170969
-0.025200682 -0.0030099005 0.016599033
-0.023092316 -0.0026232908 0.017630732
0.068556353 -0.002643185 0.01757808
0.070429593 -0.00241221 0.016984722
-0.022770207 0.0025471046 0.017476732
0.068543427 0.002457248 0.017743737
0.070497587 0.0027015738 0.017004047
-0.022442495 0.0074965041 0.017549539
-0.019781224 0.0078661917 0.019335639
0.068659134 0.0075697792 0.017667452
0.070581369 0.0075737331 0.017110871
-0.022147363 0.012531708 0.01747321
-0.019834941 0.012493763 0.01896123
0.06881877 0.01247357 0.017531227
0.070624962 0.012506534 0.017202754
-0.021891028 0.017524434 0.017531525
-0.019543037 0.018547565 0.018809048
0.068906784 0.017572222 0.017600922
0.070651643 0.017501382 0.017199622
-0.021586617 0.02245564 0.017506875
-0.019668574 0.022508258 0.017920109
0.068931639 0.022397252 0.017661873
0.070731677 0.022513852 0.017235709
-0.021335686 0.027334277 0.017555237
-0.019545535 0.028207617 0.01775389
0.069054589 0.027247287 0.017624334
0.070699506 0.027507663 0.017343728
-0.021193339 0.0323749 0.01759853
-0.019431369 0.032524895 0.017622875
0.069155008 0.032420915 0.017722407
0.070767045 0.032506764 0.017467994
-0.021090964 0.037446734 0.017493857
-0.019402402 0.037493598 0.017810982
0.069114633 0.037389874 0.017759575
0.070963889 0.037549008 0.017537799
-0.020943362 0.042526841 0.017456064
-0.019433195 0.042983044 0.017691817
0.069208816 0.042494401 0.017650317
0.071215682 0.042547923 0.017536758
-0.020978225 0.047485963 0.017441239
-0.019345639 0.047812954 0.017643003
0.0691313 0.047769886 0.017578691
0.071271598 0.047411501 0.017601699
-0.020894375 0.052305557 0.017388547
-0.018860575 0.052805174 0.017658418
0.068371937 0.052856404 0.01756094
0.070896253 0.051865149 0.017615139
-0.02042078 0.056216929 0.017387783
-0.01744815 0.057545215 0.017550422
-0.013932632 0.0592274 0.017886898
0.003560269 0.059835438 0.018341463
0.0081706326 0.059769832 0.01862525
0.012876903 0.059615191 0.018097403
0.017926315 0.059487898 0.017577281
0.022493146 0.059334975 0.017804349
0.02761744 0.059430715 0.017680535
0.032544281 0.059313752 0.017792543
0.037636854 0.059334315 0.017989065
0.042657286 0.059278734 0.017835211
0.047575951 0.059266713 0.017671535
0.052586891 0.059283167 0.017683713
0.05778436 0.059415195 0.018007854
0.062809683 0.05860845 0.017537652
0.066842034 0.056939524 0.017510636
0.070312627 0.055418462 0.017262081
-0.015767554 0.060764637 0.017415529
-0.012353602 0.061677549 0.017631665
-0.0075792666 0.062626682 0.017637249
-0.0025270935 0.062748656 0.017575914
0.0024666854 0.062184047 0.017455729
0.0075085163 0.061803512 0.017487066
0.012616912 0.061613664 0.017522268
0.017462658 0.06148681 0.017435005
0.022433737 0.061295357 0.017405931
0.027421005 0.061209198 0.017407542
0.032388568 0.061057664 0.017439909
0.037366264 0.060924556 0.01742333
0.042487867 0.060760811 0.017423294
0.047606677 0.060771212 0.017349148
0.052511945 0.060938444 0.017399933
0.057341572 0.061147917 0.017379321
0.061766148 0.060868964 0.017306579
0.065096654 0.060667071 0.016788891
-0.0058571529 0.065334611 0.017502556
-0.003172857 0.06521932 0.017224884
-0.016255144 -0.03066339 0.022662226
-0.01213787 -0.031074798 0.022432547
-0.0075455382 -0.031276178 0.022437833
-0.0025575757 -0.03119551 0.022337794
0.0025774606 -0.03115158 0.022398198
0.0075183297 -0.03127712 0.022397961
0.012628255 -0.031398736 0.022337282
0.01758665 -0.03140232 0.022390334
0.022399677 -0.031572726 0.022384701
0.027429814 -0.031641364 0.022443281
0.032430418 -0.031582255 0.022549454
0.037503589 -0.031506188 0.022484861
0.042560328 -0.031618956 0.022426611
0.04761992 -0.031826887 0.022464722
0.052596763 -0.031944696 0.022471063
0.057548419 -0.031806275 0.022501281
0.06197254 -0.031809084 0.022426959
0.065586463 -0.032463964 0.024516175
-0.021026356 -0.026316028 0.022630058
-0.01756704 -0.027476674 0.02256274
-0.012938607 -0.028766224 0.022396466
-0.0078294538 -0.029303124 0.022460988
-0.0025258882 -0.029411485 0.022525245
0.0024981182 -0.029201752 0.022890227
0.0071802787 -0.029404832 0.022577757
0.012423414 -0.029526222 0.022710426
0.017087657 -0.029436789 0.023022601
0.022283755 -0.029663226 0.022716053
0.026834659 -0.029508378 0.023488488
0.033128802 -0.029638475 0.02233348
0.03760374 -0.029539753 0.023071494
0.042684477 -0.029555019 0.023123914
0.047719136 -0.029651577 0.022594746
0.052293517 -0.02972817 0.022869751
0.057618946 -0.029530846 0.022941044
0.063116468 -0.028506977 0.022522202
0.06644626 -0.02661887 0.022415552
-0.025653332 -0.020677786 0.023249308
-0.022164436 -0.022344975 0.022404
-0.019324549 -0.023950005 0.022125207
0.064763397 -0.024495123 0.023792755
0.067804024 -0.022639196 0.022480702
0.070400514 -0.021147393 0.021898452
-0.025768593 -0.017160218 0.02238895
-0.023048911 -0.017536532 0.02255675
0.068360843 -0.01761491 0.022465123
0.070489764 -0.017538359 0.022243021
-0.025591584 -0.012947428 0.022628536
-0.023107814 -0.012552813 0.022576479
0.068312749 -0.012521128 0.0226117
0.070230857 -0.012853916 0.02183947
-0.025323264 -0.0082539497 0.022384824
-0.023079252 -0.0075095389 0.022494914
0.068098359 -0.0075291558 0.022557175
0.070204996 -0.0081554865 0.02128127
-0.025030648 -0.002386109 0.020355029
-0.022740297 -0.0026247068 0.02242728
0.068287581 -0.002557663 0.022500241
0.070141062 -0.0021453493 0.021409083
-0.022277856 0.0024902017 0.022408661
0.068384975 0.0025938875 0.022518355
0.070259541 0.0028171891 0.021676401
-0.021964692 0.0075830468 0.022360409
-0.019789455 0.0081545822 0.023803344
0.068471834 0.0076184352 0.022480769
0.070297755 0.0077647748 0.022263825
-0.021612372 0.012572007 0.022450682
-0.019679436 0.012227936 0.022685844
0.068656355 0.012667617 0.022408552
0.07033851 0.01268266 0.022180865
-0.021532141 0.017453915 0.022356631
-0.019535989 0.017686486 0.022764212
0.068684734 0.017608076 0.022509817
0.070358373 0.017423956 0.022372616
-0.021362204 0.022418622 0.022403829
-0.019368105 0.022350144 0.023103951
0.068727821 0.022504622 0.022613479
0.070315376 0.022647148 0.021762315
-0.021210115 0.027417995 0.022470728
-0.019429469 0.027493328 0.022508031
0.068835385 0.027339293 0.022628138
0.070421264 0.02771404 0.02213461
-0.020980923 0.032416102 0.022412403
-0.019278204 0.032629654 0.022687841
0.06885881 0.032374095 0.022641337
0.070535578 0.032464877 0.022148341
-0.020923888 0.037456382 0.022375213
-0.019156812 0.037558567 0.022756318
0.06873852 0.037483405 0.022519942
0.070822649 0.037636168 0.02229562
-0.020806156 0.042552125 0.022458464
-0.019148987 0.042448431 0.022663279
0.068879656 0.042492732 0.022612426
0.07115823 0.042535648 0.022420937
-0.020958554 0.047428314 0.022370493
-0.018940672 0.047704376 0.022750687
0.068864405 0.047666062 0.02256361
0.07115303 0.047499321 0.022364026
-0.02085286 0.05227546 0.022445124
-0.018535139 0.052784994 0.022513457
0.064697117 0.054955088 0.024549443
0.068129681 0.052838381 0.022467548
0.070911482 0.052140128 0.022426922
-0.020467028 0.056007944 0.022369429
-0.017253485 0.057419922 0.022473669
-0.013549453 0.059147686 0.022645904
-0.0079428703 0.059753545 0.023504838
-0.0020059524 0.05968833 0.023707749
0.0026208884 0.059624698 0.022878768
0.007816935 0.059564624 0.022850031
0.01260013 0.059518218 0.022677058
0.017547594 0.059391078 0.022539614
0.022541439 0.059248064 0.022458369
0.027399993 0.05911671 0.022749003
0.03249535 0.058889065 0.02265083
0.037543111 0.058838192 0.022639172
0.04249908 0.058874071 0.022669338
0.047655944 0.058936991 0.022632202
0.052613143 0.059065741 0.022593338
0.057728328 0.059080791 0.022669259
0.062701635 0.058409464 0.022464469
0.066509917 0.056709301 0.022323223
0.070046633 0.055463172 0.022813443
-0.015922328 0.060820673 0.022622934
-0.012227749 0.061822232 0.022469176
-0.0074675004 0.062349401 0.02249502
-0.0026165962 0.062236253 0.022448303
0.0024227176 0.061746623 0.022360476
0.0075132139 0.06145227 0.0223796
0.012538087 0.061268255 0.02240715
0.017482797 0.061139531 0.022387234
0.022339402 0.060974121 0.022390129
0.027293783 0.060819387 0.02239194
0.032397009 0.060672965 0.022411104
0.037476327 0.06058225 0.022330033
0.042595252 0.06062739 0.022165185
0.047553435 0.060615461 0.022376057
0.052612811 0.060770754 0.022401962
0.057387114 0.060986251 0.022316821
0.061443936 0.060676951 0.022348074
-0.010385419 0.065223731 0.023415489
-0.007912349 0.065256566 0.021349069
-0.016140781 -0.030659905 0.027609048
-0.012248451 -0.031040011 0.027398901
-0.0075341966 -0.031329032 0.027435994
-0.0025421137 -0.031075234 0.027443271
0.0025360892 -0.031106276 0.027392261
0.007592997 -0.031140255 0.02738387
0.012679298 -0.031100294 0.027460221
0.017497262 -0.031185985 0.027422633
0.022488339 -0.031237341 0.027321832
0.027297402 -0.031447779 0.027312486
0.032408062 -0.031360101 0.027387725
0.037464328 -0.031350393 0.02740314
0.042563345 -0.031420335 0.027408365
0.047661532 -0.031657752 0.027378356
0.052521147 -0.031867266 0.02747561
0.057511397 -0.031706586 0.027415626
0.061852127 -0.031432115 0.027269954
0.065220125 -0.032430414 0.026357494
-0.02073958 -0.026296327 0.027684934
-0.017527863 -0.027452156 0.027560217
-0.012760591 -0.02881657 0.027595703
-0.0077876602 -0.029132597 0.027734889
-0.0024230182 -0.029235177 0.027549079
0.0024548182 -0.029090205 0.027619042
0.0074578496 -0.029098211 0.027490761
0.012525176 -0.029239604 0.027636122
0.017647663 -0.029388815 0.027549705
0.022580339 -0.029395297 0.027807301
0.027669692 -0.029324776 0.027782746
0.032849796 -0.029536018 0.02781569
0.037692007 -0.029305808 0.027607206
0.042525746 -0.029404312 0.027519455
0.047512703 -0.029405218 0.027803265
0.05248417 -0.029550957 0.027598588
0.05764975 -0.029315485 0.027550047
0.062851913 -0.02834719 0.027475424
0.066273466 -0.026535356 0.027363392
-0.025817502 -0.020970669 0.027502025
-0.022096112 -0.022201072 0.027467689
-0.019474145 -0.023733219 0.027446333
0.064941332 -0.024094187 0.029539725
0.067557663 -0.022569533 0.027444748
0.070333995 -0.021189326 0.026801359
-0.025660304 -0.017550154 0.027292399
-0.022784311 -0.017542295 0.027448719
0.068018936 -0.017572986 0.027443541
0.070319258 -0.017658385 0.027512049
-0.025399553 -0.012734292 0.027366908
-0.023001393 -0.012574557 0.027408363
0.067836031 -0.012606427 0.027505638
0.070172973 -0.012971143 0.026691018
-0.025121756 -0.0076387897 0.026864296
-0.022907659 -0.0075349729 0.027375748
0.067703567 -0.0075626816 0.027410163
-0.022468535 -0.0025211982 0.027395025
-0.019962557 -3.181323e-05 0.028729733
0.067710839 -0.0025463353 0.02746493
-0.022065945 0.0025696433 0.027333306
0.067909829 0.0025415076 0.027412916
0.070049502 0.0038158332 0.025263561
-0.021796096 0.0076221772 0.027419824
-0.019703154 0.0083475756 0.026688462
0.068064988 0.0075850436 0.027460178
0.070270076 0.0084458943 0.026390783
-0.021480395 0.012619497 0.027397748
-0.01964668 0.012875484 0.027653899
0.068190232 0.012576677 0.027424376
0.070178196 0.012624135 0.026793286
-0.021388559 0.017488943 0.027428906
-0.019380119 0.017559057 0.027394649
0.068409741 0.017541416 0.02747263
0.070245884 0.018033862 0.027004976
-0.021349156 0.022354329 0.027426472
-0.019133301 0.022768078 0.027702212
0.0684058 0.022376493 0.027425697
0.070182063 0.021966923 0.027200045
-0.021194207 0.027306583 0.027492592
-0.01911184 0.027519628 0.027288927
0.068479948 0.027386433 0.027461603
0.07034526 0.027651617 0.026940268
-0.021058254 0.032392692 0.027447136
-0.019073181 0.032485701 0.027396953
0.068546608 0.032413192 0.027453352
0.070366777 0.032702174 0.027381817
-0.020984188 0.037403427 0.027488803
-0.01899096 0.03753259 0.027540393
0.068552278 0.037470143 0.027501751
0.070634276 0.037757084 0.027387835
-0.020882189 0.042450041 0.027405543
-0.018895751 0.042588949 0.027609976
0.068681367 0.042422209 0.027499314
0.071053535 0.042681254 0.027444785
-0.020958753 0.047532722 0.027353944
-0.018832512 0.047759958 0.027337965
0.068510249 0.047516927 0.027452502
0.071015954 0.047414672 0.027528256
-0.020836916 0.052184112 0.027406445
-0.018351654 0.052790146 0.027514096
0.064787082 0.054584704 0.027865734
0.068051018 0.052677017 0.0274744
0.070886515 0.052325748 0.027347427
-0.020613136 0.05605381 0.027578499
-0.017207062 0.057290237 0.027405154
-0.013289 0.058917589 0.027522815
-0.0075659994 0.059617959 0.027710153
-0.0023738211 0.0594691 0.027543999
0.0028166603 0.059408203 0.027567629
0.0075269397 0.059284911 0.027436042
0.012438041 0.059306078 0.0275755
0.017655997 0.059139676 0.027459458
0.022505397 0.05901102 0.027573891
0.027426578 0.058985315 0.027434455
0.032565076 0.058812812 0.027446084
0.037483819 0.058757715 0.027381247
0.042561084 0.058633499 0.027436404
0.047459129 0.058689062 0.027530527
0.052662503 0.05892323 0.027494755
0.057573568 0.058817238 0.027501447
0.06272465 0.058209959 0.027395107
0.066781878 0.056495562 0.027365981
0.070148639 0.056057334 0.027412124
-0.015821936 0.061002977 0.027690122
-0.01227017 0.061752755 0.027412897
-0.0076026977 0.062140439 0.027384687
-0.0025027615 0.062024705 0.027416065
0.0024245156 0.06152086 0.027427468
0.0075751976 0.061171893 0.02739455
0.012696606 0.061136864 0.027409606
0.017403785 0.060963158 0.027378676
0.022390243 0.060773607 0.027477304
0.027360186 0.060793519 0.027401317
0.032236326 0.060725469 0.027416565
0.037304923 0.060591135 0.027358938
0.042593893 0.060408749 0.027253728
0.047675438 0.060611032 0.027246667
0.052350428 0.060837146 0.027359474
0.057570301 0.060854968 0.027401783
0.061386459 0.060598075 0.027170457
-0.01048914 0.065278471 0.026543686
-0.016442001 -0.030581018 0.032704286
-0.012282554 -0.03109194 0.032533675
-0.007484098 -0.031359941 0.032371745
-0.002622036 -0.031157058 0.03246659
0.0025304821 -0.031108804 0.03242271
0.0075847204 -0.031146782 0.032345548
0.012618836 -0.031117842 0.032468658
0.017529083 -0.031202957 0.032405101
0.02237509 -0.03124742 0.03238095
0.027321905 -0.031233631 0.032433629
0.032437369 -0.031241354 0.03237256
0.037468784 -0.031241523 0.032370701
0.0425064 -0.031292956 0.032391727
0.047585811 -0.031520158 0.032414436
0.052581485 -0.031694993 0.032442287
0.057420786 -0.031682678 0.032422226
0.061611529 -0.031239538 0.032413766
-0.020706957 -0.026081042 0.032446213
-0.01756884 -0.027353093 0.032409638
-0.012702811 -0.028658433 0.032362178
-0.0077287429 -0.028978778 0.032457877
-0.0024985122 -0.029066889 0.032510515
0.0024236471 -0.028904585 0.032596361
0.0073793293 -0.029090952 0.032518588
0.012494478 -0.02912439 0.032589268
0.017472163 -0.029216079 0.032650858
0.022298247 -0.029319301 0.032464433
0.027341321 -0.029398127 0.032681506
0.032717187 -0.029465729 0.032548483
0.037439559 -0.029290676 0.03232751
0.042504795 -0.029395642 0.032309763
0.047392353 -0.029313667 0.032532077
0.052543603 -0.029429397 0.032531071
0.057675019 -0.029334143 0.032595053
0.062887855 -0.028173978 0.032370798
0.066131137 -0.026440768 0.032288201
-0.025675653 -0.021130711 0.032112464
-0.02223143 -0.022337081 0.032460764
-0.019402551 -0.023787083 0.032409761
0.064704888 -0.023124555 0.032899383
0.067501575 -0.0224247 0.032462448
0.070212096 -0.021085626 0.032159593
-0.025553634 -0.017464252 0.03233169
-0.022909466 -0.017619919 0.032346044
0.06489671 -0.018394759 0.031913444
0.067689426 -0.017596886 0.032393347
0.070216313 -0.01761931 0.031914439
-0.025425037 -0.01283469 0.032506682
-0.022926955 -0.012501094 0.032402657
0.067687519 -0.012641633 0.032376539
0.070079878 -0.014077804 0.03134371
-0.025164638 -0.0090433778 0.032902576
-0.022761472 -0.0075714365 0.032409895
0.064975478 -0.0098740626 0.030516483
0.067554049 -0.0075713112 0.032433402
-0.02232323 -0.0025981124 0.032452606
0.064975508 -0.0046645519 0.034518715
0.067565747 -0.00258903 0.03241488
-0.022051472 0.0025068761 0.032459091
-0.019890973 0.0030945335 0.033828765
0.067607582 0.0025294083 0.032414705
-0.021815429 0.0075498889 0.032419506
-0.01978098 0.0082285916 0.032425374
0.067753002 0.0075934213 0.032383244
-0.021589786 0.012627325 0.032434333
-0.019714551 0.013091242 0.032021493
0.067886867 0.012553952 0.032463837
0.070057876 0.014436817 0.030323686
-0.021441579 0.017488986 0.032463551
-0.019474261 0.017718391 0.032288559
0.06789121 0.017458146 0.032465842
0.07019604 0.018494513 0.033262145
-0.021458169 0.022466587 0.032383766
-0.019149108 0.022544969 0.032485444
0.068085261 0.022336567 0.032366361
0.070193812 0.022636784 0.032681894
-0.021356054 0.027395338 0.032443758
-0.019010268 0.027385414 0.032427493
0.068236902 0.027355392 0.032428276
0.070380658 0.027458655 0.032574352
-0.021146601 0.032309391 0.0323411
-0.019009925 0.032561302 0.032512184
0.068356864 0.03242879 0.032476038
0.070295133 0.032863941 0.032022279
-0.021059599 0.037390944 0.03244105
-0.018916862 0.037435155 0.032395132
0.068341896 0.037559453 0.032457802
0.070500761 0.037807498 0.032256961
-0.020956617 0.042519838 0.032457218
-0.01884179 0.042524844 0.03252089
0.068453118 0.042538676 0.032494746
0.070965864 0.042624202 0.032429434
-0.021024084 0.047459748 0.032421805
-0.018803524 0.047518399 0.032433979
0.068311602 0.047661334 0.032510754
0.070873857 0.047294091 0.032423791
-0.020874517 0.052275129 0.032475285
-0.018609559 0.052669797 0.032425754
0.064638138 0.054786485 0.032630339
0.067742229 0.052711532 0.032504436
0.07071954 0.052372087 0.032268789
-0.020777058 0.055992734 0.032629747
-0.017200699 0.057076953 0.032486171
-0.013287679 0.058996029 0.032390688
-0.0078746472 0.059556428 0.032465957
-0.0024522718 0.059501156 0.032901794
0.0027139841 0.059178811 0.032589205
0.0078730388 0.059021216 0.03260538
0.012481162 0.059013095 0.032727089
0.017585071 0.059035219 0.032546863
0.02254292 0.05897186 0.032420378
0.027509075 0.058768444 0.032448828
0.032526545 0.058631867 0.032450791
0.037459917 0.058651708 0.032449696
0.042568285 0.058681551 0.03240874
0.047611337 0.058635529 0.03239432
0.05267014 0.058820955 0.032526631
0.057495445 0.058804739 0.032434154
0.062561214 0.058009092 0.032507986
0.066921875 0.05643351 0.032324042
0.070084848 0.055725247 0.031133132
-0.015912062 0.061239611 0.032525372
-0.012357814 0.061686587 0.032343492
-0.007613657 0.062120296 0.032456517
-0.0024680793 0.061762832 0.032389767
0.0024435539 0.061458975 0.032374345
0.0076099024 0.061093748 0.032391924
0.012556257 0.061024554 0.032398563
0.017459419 0.060846169 0.032443356
0.022333078 0.060761422 0.03242895
0.027393358 0.060753379 0.032450318
0.032380439 0.060702175 0.032342423
0.037415005 0.06051936 0.032445922
0.042493589 0.060321704 0.032430384
0.047699664 0.060471736 0.032496251
0.052394103 0.060970973 0.032460865
0.057589799 0.060844101 0.032400962
0.061274029 0.060536567 0.032339081
-0.016493533 -0.030532725 0.037661985
-0.012162847 -0.03105364 0.037428278
-0.0075350339 -0.031188186 0.037492022
-0.0026393228 -0.031037699 0.037505392
0.0025772436 -0.031018829 0.037470862
0.007602788 -0.031117955 0.037488446
0.012604234 -0.03114548 0.037543435
0.017546017 -0.03128323 0.037453864
0.022432314 -0.031336721 0.037469856
0.027362578 -0.031284105 0.037531693
0.032432925 -0.03123741 0.037469234
0.037486658 -0.031242674 0.037452217
0.042681318 -0.031350616 0.037527043
0.04765388 -0.031619012 0.037545562
0.052606076 -0.031704869 0.037449967
0.057337273 -0.031614348 0.037502218
0.061270602 -0.031058252 0.037533917
-0.020909447 -0.026183484 0.037452683
-0.017555038 -0.027478322 0.037490193
-0.01265032 -0.028636098 0.037423879
-0.0077027362 -0.02886717 0.037488725
-0.0023974595 -0.029140564 0.037505548
0.0025471353 -0.029091811 0.03756427
0.0074089905 -0.029149285 0.037393693
0.012394335 -0.029170169 0.037476841
0.017568126 -0.029198159 0.037235986
0.022580717 -0.029306181 0.037589908
0.02740043 -0.02929534 0.037594501
0.032428216 -0.029368639 0.037540678
0.037501693 -0.029345375 0.03743257
0.04236757 -0.029334459 0.037402157
0.047613647 -0.029357322 0.037392017
0.05254335 -0.029232306 0.037392884
0.057711754 -0.029152377 0.037711516
0.06280873 -0.02818989 0.037449323
0.066064127 -0.026171831 0.037456397
-0.025357395 -0.021616815 0.037659023
-0.022393845 -0.022441821 0.037525877
-0.019391302 -0.024043897 0.03736129
0.064520873 -0.023718653 0.037158333
0.067337863 -0.022393309 0.037447359
0.070070133 -0.020797964 0.037069608
-0.025664924 -0.017271718 0.037500232
-0.022925226 -0.017514965 0.037486836
0.067704938 -0.017520007 0.03752593
0.070206195 -0.017471889 0.037587103
-0.025596609 -0.012865055 0.037401319
-0.022931458 -0.012530202 0.037473045
0.06493371 -0.01352522 0.03988741
0.067603007 -0.0125873 0.037471347
0.070157945 -0.01389436 0.038975377
-0.025164908 -0.0086499602 0.037501492
-0.022670131 -0.0075719743 0.037462246
0.067407146 -0.0076538823 0.037510864
-0.022275671 -0.0026349402 0.037457548
-0.019918734 -0.0019378919 0.037707385
0.067555636 -0.0025457449 0.037505578
-0.021891585 0.0025058915 0.037515923
-0.019875029 0.0031904215 0.038123116
0.067564167 0.002506363 0.037515931
-0.021854648 0.0075972406 0.037473109
-0.019775115 0.0077674775 0.037703108
0.064991876 0.0059277546 0.039055943
0.067525901 0.0075212233 0.037447378
-0.021734642 0.012590022 0.037470594
-0.019731788 0.013274244 0.037521325
0.067604691 0.012610576 0.037409525
-0.021536859 0.017470328 0.037490096
-0.019512502 0.018003533 0.037364982
0.067862868 0.017617978 0.037442777
0.070174068 0.017420951 0.037384361
-0.021482157 0.022453405 0.037452318
-0.019274842 0.02280934 0.037375804
0.068016671 0.022373408 0.037470032
0.070126139 0.023507848 0.037968934
-0.021408971 0.027400047 0.037511416
-0.019045711 0.027404625 0.037485957
0.068198927 0.027411241 0.037483245
0.070246004 0.027461071 0.03724755
-0.021326493 0.032347467 0.037482008
-0.019035853 0.032510664 0.037497673
0.068310708 0.032426465 0.037477892
0.07031472 0.033381898 0.037588399
-0.021149037 0.037478365 0.037503492
-0.019007029 0.03742563 0.037334543
0.068399049 0.037465107 0.037464321
0.070382133 0.037761435 0.0374627
-0.021169862 0.0425409 0.037526116
-0.019013958 0.042552307 0.037377492
0.068379767 0.042492807 0.037544027
0.070844777 0.042641085 0.037522547
-0.021133881 0.04741301 0.037467416
-0.01892936 0.04761992 0.037494566
0.068295963 0.047516115 0.037454784
0.070758186 0.047159113 0.037385657
-0.020898931 0.052318081 0.037453622
-0.018579096 0.052808765 0.037468139
0.064462893 0.054569568 0.038104985
0.067639299 0.052683689 0.0374582
0.070419222 0.051683668 0.037351508
-0.020685533 0.056059591 0.037151441
-0.017106796 0.057148963 0.037458703
-0.01317388 0.058918923 0.037395336
-0.0079080788 0.059626095 0.03776503
-0.002063639 0.05955695 0.037575375
0.0027189523 0.059216406 0.037474565
0.0077748545 0.058896594 0.037350137
0.012492332 0.058854841 0.037377723
0.017525228 0.058894094 0.03745202
0.022695841 0.058969676 0.037660871
0.02747196 0.058767259 0.037375849
0.032531906 0.058665808 0.037504002
0.037428357 0.05860864 0.037488699
0.042573985 0.058549087 0.037494365
0.047556106 0.058460306 0.037456818
0.05260697 0.058649231 0.037505895
0.057562713 0.058672138 0.037572123
0.062571861 0.057917476 0.03742018
0.066536285 0.056389783 0.037367862
-0.016032338 0.060975857 0.037481181
-0.012248999 0.061517484 0.037418205
-0.0076239808 0.061999891 0.037453972
-0.0025203892 0.061766166 0.037494414
0.0024377326 0.06142522 0.037461504
0.0075712763 0.061092522 0.037514336
0.01256769 0.060986228 0.037511382
0.017450852 0.060870156 0.037463952
0.022385795 0.060772885 0.037449863
0.027420238 0.060697503 0.037452541
0.032362062 0.060706537 0.037368499
0.037312467 0.060576659 0.037491754
0.042458259 0.06034001 0.037519723
0.047709197 0.060450882 0.037531946
0.052585527 0.061041832 0.037454456
0.05776218 0.060787607 0.037409145
0.061250046 0.060774028 0.037754938
-0.01611229 -0.030818425 0.042944636
-0.012172847 -0.031253323 0.042674817
-0.0075319055 -0.031240309 0.042619113
-0.0026563129 -0.031024592 0.042519774
0.0026053078 -0.031038541 0.042519204
0.0075578806 -0.031100145 0.042407818
0.012679783 -0.031192658 0.042535488
0.017589834 -0.031376798 0.042521223
0.022439834 -0.03136107 0.042553734
0.027406184 -0.031312134 0.042548344
0.032404326 -0.031251423 0.042560238
0.037458554 -0.031231068 0.042529739
0.042571474 -0.031346474 0.042548936
0.047668178 -0.03167814 0.042544644
0.052651409 -0.031730946 0.042529073
0.057499737 -0.031635776 0.042529196
0.061330568 -0.031036654 0.042456124
-0.021011155 -0.025957715 0.042495836
-0.017605316 -0.027522722 0.042559285
-0.012710605 -0.028758775 0.042643674
-0.0076933862 -0.028890047 0.042554002
-0.002563305 -0.029023372 0.042619355
0.0023979461 -0.029217485 0.042595722
0.0075097005 -0.029333755 0.042473532
0.012524958 -0.029412935 0.042661648
0.017698193 -0.029385593 0.042489082
0.022462765 -0.029294763 0.042632405
0.027419522 -0.029297175 0.042536777
0.032555241 -0.029263554 0.042585973
0.037128739 -0.029227862 0.042433225
0.042365387 -0.029442884 0.042477094
0.047462657 -0.029367631 0.042662874
0.052784316 -0.029291088 0.042582482
0.057811562 -0.029129615 0.042499878
0.06279026 -0.027972115 0.042543765
0.066177703 -0.026166549 0.042540818
-0.025335159 -0.021732463 0.042618573
-0.022428457 -0.022415321 0.042582918
-0.019458164 -0.024012396 0.042664226
0.064685829 -0.023418274 0.043054149
0.067228608 -0.02241418 0.042445704
0.070194647 -0.021221086 0.042809092
-0.025637062 -0.017439744 0.042615384
-0.022926925 -0.017368622 0.042464852
0.064914472 -0.017774828 0.043185882
0.067699581 -0.01750632 0.04249702
0.070380017 -0.018338004 0.042192355
-0.025548847 -0.012722244 0.042489488
-0.022908997 -0.01252794 0.042583454
0.064910918 -0.012194056 0.043379083
0.067500338 -0.012565574 0.042556677
0.070043601 -0.014242968 0.040214799
-0.025250083 -0.0087668924 0.042856742
-0.022720413 -0.0075618755 0.042493943
-0.019895142 -0.0066065192 0.043674845
0.064790003 -0.0074865008 0.044094808
0.067208849 -0.0075780167 0.042468347
-0.025088893 -0.0045722299 0.043080427
-0.022325253 -0.002533417 0.042603526
-0.019891888 -0.0023715687 0.043684106
0.067344129 -0.0024482375 0.042542014
-0.022084098 0.0025700508 0.042596444
-0.019866943 0.0028634896 0.042675283
0.067460991 0.002494903 0.042594437
-0.021923279 0.0075276783 0.042590398
-0.019789387 0.0076124114 0.042052191
0.067440368 0.0075638713 0.042549167
-0.021832295 0.012598871 0.04254337
-0.019691635 0.012266371 0.042537782
0.067542933 0.012499831 0.042541083
-0.021651806 0.017520132 0.042592883
-0.019522035 0.017511975 0.042612888
0.067858271 0.017568903 0.042536885
0.0701067 0.017649142 0.041846991
-0.021562267 0.022476247 0.042520404
-0.019411836 0.022660967 0.042494055
0.067995742 0.022525197 0.042509276
0.070131443 0.023275226 0.042003445
-0.021433659 0.027458288 0.04253744
-0.019196728 0.027498085 0.042573188
0.068091951 0.027370855 0.042547334
0.070198603 0.026800811 0.043310624
-0.021466635 0.032385349 0.042568721
-0.019298766 0.032479856 0.042399772
0.068221115 0.032451116 0.042516392
0.070284627 0.032984909 0.042500999
-0.021234579 0.037459686 0.042549323
-0.019126719 0.037521206 0.04255208
0.068176948 0.03746685 0.042589635
0.070231609 0.037800848 0.042533521
-0.0212323 0.042543795 0.042541269
-0.019053936 0.042532384 0.042553406
0.068309255 0.042549919 0.042556666
0.070833415 0.042669009 0.04242187
-0.021368824 0.047486018 0.042602658
-0.018902998 0.04775149 0.042542618
0.068267316 0.047527198 0.0425197
0.070749871 0.047309246 0.042548038
-0.021070326 0.052287001 0.042570986
-0.018654039 0.052827984 0.042562924
0.064487375 0.054636378 0.042585526
0.06757433 0.052679915 0.042478915
0.07041017 0.051075179 0.042442933
-0.020785529 0.056206048 0.042594425
-0.017114853 0.05714485 0.042468041
-0.012866722 0.058952902 0.042665515
-0.0075624236 0.059498291 0.042642832
-0.0023357263 0.059455328 0.042799547
0.0025131723 0.059247751 0.042895246
0.0076387851 0.059194509 0.042541012
0.012536416 0.059079725 0.042614721
0.017590813 0.058974966 0.042478606
0.022481743 0.058731701 0.042627379
0.027432388 0.058763128 0.042530663
0.032600231 0.058608685 0.042569011
0.037501179 0.058484953 0.042484548
0.042530779 0.058440249 0.042520009
0.047560733 0.058385391 0.042497147
0.052613236 0.058470871 0.042538274
0.05762928 0.058618203 0.042525839
0.062685125 0.057940226 0.042519145
0.06650053 0.056335457 0.042560831
-0.015735365 0.060808182 0.042257521
-0.012239679 0.061626866 0.042502299
-0.0075652758 0.061918646 0.042525806
-0.0025866407 0.061764397 0.042503465
0.0024638725 0.061351079 0.042533092
0.007541446 0.061148096 0.042546015
0.012594276 0.060994044 0.042615045
0.017516194 0.060854536 0.042534083
0.022389347 0.060738973 0.042524505
0.027404839 0.060742944 0.042567383
0.032280628 0.06069335 0.042654503
0.037300766 0.060591586 0.042536672
0.04253326 0.060340367 0.042509113
0.047660764 0.060478315 0.042498533
0.052783482 0.060925152 0.042452376
0.057570294 0.060858164 0.042538285
0.061144657 0.060693569 0.042409115
-0.015510969 -0.030955661 0.047212459
-0.012317052 -0.031410266 0.047614381
-0.0076609072 -0.031282756 0.047652431
-0.0025116333 -0.030949578 0.047654252
0.002565416 -0.031000793 0.047627576
0.0075564114 -0.031092767 0.047514454
0.012661086 -0.031218499 0.047616716
0.017582532 -0.031382978 0.047552321
0.022474455 -0.031402647 0.047615595
0.027319495 -0.031393189 0.047536381
0.032405578 -0.031381179 0.047606491
0.037435181 -0.031343248 0.047627129
0.042590521 -0.031370822 0.047628716
0.047610678 -0.031728916 0.047607578
0.052668255 -0.031765822 0.047594409
0.05744388 -0.031681377 0.047606345
0.061380077 -0.031097913 0.047447879
-0.021266883 -0.026262667 0.047588751
-0.017570835 -0.02746423 0.047516234
-0.012601671 -0.028665952 0.047666669
-0.0076829921 -0.028778639 0.047618516
-0.0025700836 -0.028846228 0.047511145
0.0026212833 -0.0289835 0.047584742
0.0074920207 -0.029184377 0.047734473
0.012294276 -0.029325977 0.047677122
0.017476488 -0.029417217 0.04744608
0.022536237 -0.029252036 0.047619924
0.027540011 -0.029200718 0.0476362
0.032397423 -0.029108066 0.047504943
0.037471712 -0.029141625 0.047492534
0.04242298 -0.029343944 0.047487881
0.047609892 -0.029366335 0.047743838
0.052528974 -0.029356759 0.047729045
0.057825349 -0.029250754 0.047524054
0.06277056 -0.027871782 0.047542568
0.066178463 -0.025930926 0.047482364
-0.025441974 -0.021717286 0.047521539
-0.022318196 -0.022412341 0.047494106
-0.019427327 -0.023755459 0.04755573
0.064574391 -0.023522191 0.047459405
0.067251436 -0.022371907 0.047528464
-0.025519319 -0.017291255 0.04753295
-0.022911176 -0.017457308 0.047584843
0.064700507 -0.016621148 0.0486321
0.06757281 -0.017397508 0.047625039
0.070153624 -0.018306611 0.047963329
-0.025628317 -0.012329506 0.04756552
-0.02295192 -0.012544759 0.047579542
0.0647135 -0.012320679 0.047952417
0.067418382 -0.012582584 0.047555294
0.070216566 -0.01378923 0.047408205
-0.025291409 -0.0081972638 0.047420256
-0.022909803 -0.0074957344 0.047553778
0.06466338 -0.0071893884 0.04802661
0.067018151 -0.0076019159 0.047578443
-0.025112985 -0.004123243 0.048985504
-0.02256012 -0.0025141819 0.047567431
-0.01990265 -0.0006885847 0.045231435
0.064733379 -0.0031730647 0.047994364
0.067086965 -0.0024850764 0.047600366
-0.022258006 0.0025317625 0.047594558
-0.019857509 0.0024415329 0.04695208
0.064773522 0.002008203 0.049086642
0.067237295 0.0025380452 0.047607355
-0.022130178 0.0075568869 0.04760623
-0.019840382 0.0075614983 0.047548424
0.06481953 0.0074942601 0.049104623
0.067299284 0.0076227989 0.047592659
-0.021912374 0.012561623 0.047591835
-0.019689433 0.01252402 0.047388919
0.064857282 0.011927804 0.048789155
0.06732595 0.012546079 0.047622036
-0.021781771 0.017646039 0.047573779
-0.019442137 0.017701872 0.047349736
0.067643076 0.017516755 0.047634665
0.070063375 0.018680213 0.046290584
-0.021637529 0.02243844 0.04766969
-0.019478619 0.022577578 0.047478046
0.067900732 0.022471093 0.047538038
0.070040986 0.023799345 0.045876287
-0.021548206 0.027285043 0.047612283
-0.019354716 0.027537718 0.047551788
0.068002403 0.027355479 0.047600489
0.070145912 0.026884569 0.046053648
-0.021445934 0.032400649 0.047588252
-0.019246396 0.032514747 0.047616933
0.068195306 0.03244542 0.047615316
0.070263572 0.032348584 0.046862878
-0.02139353 0.037367057 0.047586843
-0.019244108 0.037576068 0.047596503
0.068065472 0.037411667 0.047566697
0.070296496 0.038254965 0.04755595
-0.021185767 0.042611111 0.047556002
-0.019147199 0.042478491 0.047553454
0.068148293 0.042502377 0.047577694
0.070867896 0.04273317 0.047446623
-0.021358788 0.047532178 0.047628935
-0.018950844 0.047472842 0.047586329
0.068250857 0.047534592 0.04765968
0.070876054 0.047293641 0.047519457
-0.02110528 0.052335709 0.047579736
-0.018644352 0.052798022 0.047568396
0.064614519 0.054414567 0.047509018
0.067523703 0.052700251 0.047552049
0.070393696 0.051208638 0.047635049
-0.020701306 0.05641184 0.047723945
-0.017308963 0.05721873 0.047642428
-0.013000046 0.059029095 0.047577705
-0.0076558236 0.059438735 0.047479097
-0.0024488647 0.059428953 0.04749652
0.0026363139 0.059310652 0.04742498
0.0076904744 0.059137359 0.047464129
0.012684505 0.058989316 0.047521152
0.017659865 0.058972545 0.047468584
0.022392683 0.058816556 0.047428731
0.027375462 0.058604423 0.047549989
0.032505807 0.058520105 0.047630608
0.037511233 0.058510181 0.047500364
0.042570584 0.058475655 0.047578905
0.04757138 0.058401112 0.04756055
0.052566152 0.058332868 0.047574092
0.05756294 0.058511563 0.047580168
0.062537424 0.057949975 0.047613725
0.066530481 0.05653901 0.047459342
-0.015748294 0.060650244 0.047786385
-0.012332488 0.061560746 0.047543887
-0.0075266678 0.062118229 0.047611404
-0.0026007444 0.061799746 0.047558565
0.0024579389 0.061389718 0.047576446
0.0075104353 0.061185766 0.047641966
0.012601754 0.061043937 0.047611915
0.017493995 0.060942788 0.047675215
0.022392504 0.060777314 0.047688391
0.027319074 0.060677744 0.04760332
0.032362856 0.060649946 0.047565572
0.037431087 0.060542826 0.047560558
0.042422183 0.06042606 0.047647126
0.047666121 0.060514029 0.047522217
0.052695494 0.060683362 0.047580797
0.057297554 0.060887054 0.047576126
0.061364233 0.060740229 0.04778336
-0.015848473 -0.031103496 0.052797008
-0.01232559 -0.031574823 0.052693032
-0.0076312404 -0.03135344 0.052653603
-0.0025240406 -0.031069113 0.052633248
0.0025909042 -0.031080551 0.052612133
0.007619408 -0.031211512 0.052568156
0.012629957 -0.031311631 0.052660484
0.017542204 -0.031385686 0.052578002
0.022448778 -0.03136792 0.05263355
0.02736818 -0.031443264 0.052584235
0.032399684 -0.031378616 0.052653182
0.037443038 -0.031390019 0.052592281
0.042524122 -0.031403083 0.052666225
0.047647487 -0.031713199 0.052623648
0.052621935 -0.031878285 0.052614525
0.057384778 -0.03179425 0.052612785
0.06130347 -0.030960791 0.052435525
-0.020978879 -0.026107771 0.052407324
-0.01759124 -0.027541978 0.052566625
-0.012699625 -0.028507099 0.052511081
-0.0076312125 -0.028603749 0.052672528
-0.0026464197 -0.028796148 0.052566826
0.0025096075 -0.028876401 0.052680369
0.0075964085 -0.029019274 0.052635413
0.012463379 -0.029185738 0.052715454
0.017501734 -0.02933638 0.052602794
0.022343816 -0.029306309 0.052603468
0.02749115 -0.029186891 0.052460454
0.032426253 -0.029225579 0.052342258
0.037568927 -0.029101182 0.052450031
0.042595197 -0.029250262 0.052684471
0.047531139 -0.029243255 0.052393265
0.052642323 -0.029290276 0.052468218
0.058059193 -0.02930288 0.05247267
0.062836006 -0.027856624 0.052471355
0.066182688 -0.026010267 0.052360997
-0.025525099 -0.02158967 0.052420631
-0.022439279 -0.022419453 0.05252156
-0.019396663 -0.023732688 0.052893635
0.064330466 -0.023241758 0.052493799
0.067019254 -0.022415224 0.052542821
0.070373297 -0.020350628 0.052870829
-0.025607785 -0.017105473 0.052622117
-0.022781599 -0.017586509 0.052527945
0.064669967 -0.017512579 0.052804451
0.067435592 -0.017551232 0.052598979
0.070151806 -0.017894162 0.052063316
-0.025655242 -0.012788643 0.052613255
-0.023026157 -0.012457768 0.052528229
0.064607807 -0.012544397 0.052148182
0.067375302 -0.012611767 0.052575339
0.070235789 -0.013695739 0.052877221
-0.025393132 -0.0083581461 0.05244929
-0.023114471 -0.0075113513 0.052635752
0.064659506 -0.0072248005 0.052187387
0.067142628 -0.0077006388 0.052623872
-0.025256399 -0.0045633782 0.050691187
-0.022796607 -0.0025075723 0.052665394
0.064653471 -0.0028114116 0.052692238
0.067010075 -0.0025367443 0.052513082
-0.022562606 0.0025367658 0.052550279
0.064686581 0.0020651694 0.052636303
0.067147814 0.0025880029 0.052529819
-0.022238035 0.0075784815 0.052548986
-0.019861648 0.0087485919 0.052160449
0.064748146 0.0074156304 0.052605283
0.067251883 0.007540802 0.052437216
-0.022145573 0.012609851 0.052604731
-0.019634085 0.01288635 0.052349906
0.064802259 0.011009187 0.050979055
0.067279786 0.012559916 0.05258343
-0.02188435 0.017553559 0.052598994
-0.019562261 0.017772039 0.052596804
0.06742654 0.0174984 0.052632786
-0.021717664 0.022448827 0.05255492
-0.019505948 0.02270611 0.052608926
0.064768121 0.021066573 0.05380654
0.06765078 0.022511203 0.052670807
-0.021709571 0.027369449 0.052697215
-0.01930357 0.027406693 0.052441098
0.067887239 0.02744215 0.052583385
0.070059925 0.025635991 0.052039105
-0.021517761 0.032359842 0.052643824
-0.019199288 0.032504663 0.052499779
0.067961335 0.032439653 0.052579097
0.070234627 0.032672875 0.053075559
-0.021461187 0.037512407 0.052575573
-0.019151179 0.037498813 0.052592311
0.068070911 0.037451006 0.052511912
0.070484057 0.038098555 0.052467387
-0.021380039 0.042480186 0.052655458
-0.019030698 0.042573832 0.052477363
0.068120658 0.042502549 0.052561555
0.070794128 0.042632628 0.052390788
-0.021617241 0.047593851 0.052572232
-0.018923478 0.047637839 0.052613884
0.068092115 0.047600228 0.052578818
0.070651293 0.04720328 0.052509081
-0.021340018 0.052272197 0.052678872
-0.01869203 0.052652229 0.052465245
0.064519539 0.054323457 0.053087704
0.067453489 0.052686382 0.052621905
0.070372239 0.051064804 0.052499902
-0.020799702 0.056092054 0.052337766
-0.017310036 0.057188809 0.052594006
-0.012938234 0.058965944 0.052632306
-0.0072566182 0.059369948 0.052480727
-0.0023905588 0.059319008 0.05256322
0.0025035269 0.059113458 0.05257044
0.0074251504 0.059047997 0.052458163
0.012577466 0.058947757 0.052687876
0.017593781 0.058911815 0.052562464
0.022472968 0.058829874 0.052348845
0.027481386 0.058687445 0.052533474
0.032517474 0.058484972 0.052581515
0.03755372 0.058477394 0.052592125
0.042559955 0.05848654 0.052621473
0.047658078 0.058444392 0.052570004
0.052467845 0.058318455 0.052604195
0.057517283 0.058372594 0.052578926
0.062503144 0.057747368 0.052540872
0.066240855 0.056210697 0.052483134
-0.01581409 0.060814247 0.05292511
-0.012286318 0.061668649 0.052567687
-0.0076146335 0.062225051 0.052635074
-0.0026056902 0.061824571 0.052597307
0.002487876 0.06141416 0.052615363
0.0075109242 0.061182998 0.052654058
0.012606903 0.061073285 0.052666485
0.017502531 0.060937274 0.052677438
0.02241553 0.060803436 0.052734233
0.027325762 0.060682252 0.052676622
0.032263134 0.060643416 0.052591231
0.037453357 0.060556538 0.052729279
0.042495541 0.060573786 0.052685156
0.047658753 0.060571399 0.05267448
0.052746624 0.060755718 0.052536182
0.057304896 0.060891274 0.052599162
0.061263848 0.060821705 0.05284442
-0.01627123 -0.030560218 0.057278212
-0.012228857 -0.031554557 0.057462506
-0.0075611034 -0.031522948 0.057540826
-0.0025175391 -0.031150207 0.057554696
0.0025168257 -0.031150991 0.057499088
0.0076303845 -0.031363193 0.057627153
0.012605002 -0.031454664 0.057640996
0.017526574 -0.031442381 0.057465214
0.022516469 -0.031440433 0.057467032
0.027352938 -0.031477954 0.057648595
0.032402255 -0.031446345 0.057527903
0.037486158 -0.031375911 0.057604868
0.042613707 -0.031423874 0.057611752
0.047642935 -0.031628329 0.057516214
0.052635096 -0.03181503 0.05751979
0.057353679 -0.031652924 0.057518084
0.061401241 -0.03091895 0.057465278
-0.020988511 -0.026094519 0.057479694
-0.017564036 -0.027497858 0.057468239
-0.012738745 -0.028400321 0.057474475
-0.0075178863 -0.02846799 0.057564944
-0.0024927433 -0.028619403 0.057529993
0.0024527891 -0.028750511 0.057588462
0.0075732539 -0.029008979 0.057482913
0.012592753 -0.029021574 0.0573925
0.017349867 -0.029147167 0.057516653
0.022526912 -0.029239764 0.057767604
0.027478877 -0.029338904 0.057614736
0.032487702 -0.029273001 0.057568297
0.03753189 -0.029135089 0.05736354
0.042369023 -0.029063294 0.057735011
0.047442365 -0.029245812 0.057498097
0.052521698 -0.029251629 0.057277154
0.057686169 -0.029352389 0.057378389
0.062856399 -0.027824838 0.057456147
0.066022687 -0.02593945 0.057465274
-0.025439085 -0.021436812 0.057913043
-0.022434957 -0.022332769 0.057476182
-0.019210072 -0.02401525 0.056975111
0.064311355 -0.022364292 0.057457421
0.06709291 -0.022422714 0.05742798
-0.025735643 -0.017244693 0.057557628
-0.022936461 -0.017410763 0.057455383
0.064566605 -0.01758877 0.057459932
0.067458503 -0.017523391 0.057506703
0.070091762 -0.018536389 0.056671537
-0.025733864 -0.012665633 0.057681091
-0.023014335 -0.012487193 0.05750924
0.064658657 -0.01241284 0.057417348
0.067294642 -0.012642452 0.057481878
0.070111461 -0.013314235 0.056195557
-0.025442373 -0.00818781 0.057728492
-0.023224942 -0.0074864887 0.057521682
0.064699046 -0.0076737632 0.057298213
0.067174055 -0.0077361362 0.057507891
-0.025090247 -0.0032964165 0.05892482
-0.022976952 -0.0025258968 0.057595313
0.064690456 -0.0030154367 0.057164274
0.067001887 -0.0025300195 0.057499904
-0.022616984 0.0025461256 0.057513233
0.064767361 0.002222125 0.057286069
0.067070827 0.0025094254 0.057562739
-0.022444924 0.0075369547 0.057562787
-0.019852104 0.0083020544 0.058417704
0.06474036 0.0075704227 0.057542142
0.0671423 0.0076005892 0.057495978
-0.022176182 0.012641544 0.05758556
-0.019713264 0.012669933 0.057043076
0.064755611 0.012689924 0.057775922
0.067206062 0.012613748 0.057443753
-0.022034694 0.017580073 0.057562932
-0.019673636 0.01770539 0.057211876
0.064812593 0.018073423 0.058073234
0.067393482 0.017533295 0.057606369
-0.021852328 0.022411929 0.057550527
-0.019499777 0.022501526 0.057554036
0.06746757 0.02239904 0.057578109
-0.021718996 0.027413886 0.057555884
-0.019265611 0.027404839 0.057350263
0.067618698 0.027456274 0.057560887
0.070021257 0.029024471 0.057190992
-0.021660574 0.032358374 0.057598613
-0.019220578 0.032483567 0.05749416
0.06788253 0.032465119 0.057538435
0.070175745 0.033230036 0.05742529
-0.021488704 0.037462935 0.05750921
-0.019079525 0.037520289 0.057433374
0.067993551 0.037385378 0.05754618
0.070443399 0.038117655 0.057128403
-0.021505376 0.042577583 0.057546515
-0.019023648 0.04260087 0.057495348
0.068137497 0.042486086 0.057484336
0.070733279 0.042512402 0.057423234
-0.021659115 0.047543302 0.057541072
-0.01888312 0.047716808 0.057589334
0.068043001 0.047571402 0.057468008
0.070506379 0.047229547 0.057446521
-0.021448983 0.052283991 0.057530373
-0.018593485 0.052699812 0.057409983
0.064409085 0.054247819 0.057766411
0.067350417 0.052655153 0.057545025
0.070356548 0.05075391 0.057293363
-0.020927606 0.055972315 0.05766866
-0.017438529 0.057362523 0.057593055
-0.013116295 0.059017032 0.05745808
-0.0074774544 0.05929501 0.057604652
-0.0023431724 0.059266627 0.057588298
0.0025064223 0.059211094 0.057415608
0.007347858 0.059026904 0.05738958
0.012726837 0.058732603 0.057358559
0.017615393 0.058705501 0.057516132
0.022623481 0.05868699 0.057484176
0.027477128 0.05861719 0.057513807
0.03243801 0.058472503 0.057489786
0.037522141 0.058385715 0.057569955
0.042549919 0.058288619 0.057530612
0.047461055 0.058319241 0.057555981
0.052519809 0.058349933 0.057459179
0.057538647 0.058300421 0.057548106
0.062593281 0.057537068 0.057532683
0.066214263 0.056199808 0.057503182
-0.015875954 0.061022408 0.05737254
-0.012289808 0.061617173 0.057508696
-0.0076544927 0.062069304 0.057480771
-0.0026774446 0.061726928 0.057533894
0.0024467313 0.061443847 0.057470065
0.007605779 0.061102368 0.057548828
0.012650159 0.061039366 0.057589691
0.017494511 0.060911 0.057620209
0.022436175 0.060795739 0.057525501
0.027344279 0.060791194 0.057687875
0.032381088 0.060734149 0.057527095
0.037493188 0.060728405 0.057613056
0.042410333 0.060676228 0.05764043
0.047710467 0.060703468 0.057459258
0.052636784 0.060975656 0.057618815
0.057150155 0.060853135 0.057553411
0.061591718 0.060573518 0.057581682
-0.016063303 -0.030533286 0.062899441
-0.012133585 -0.03161538 0.062598012
-0.0076344609 -0.03172072 0.062498119
-0.0025636326 -0.031404287 0.062546141
0.002582239 -0.031424321 0.062525637
0.0076264567 -0.031484712 0.062471732
0.012625549 -0.031533282 0.062468894
0.017573623 -0.031537704 0.062465705
0.022451615 -0.031512924 0.062384523
0.027408985 -0.031456459 0.062498149
0.032424763 -0.031434935 0.062446132
0.037459623 -0.031392202 0.062429015
0.042582367 -0.031466175 0.06242425
0.047645211 -0.03165555 0.062436894
0.052633274 -0.031759642 0.062424961
0.057365853 -0.031531513 0.062467162
0.061348915 -0.030769385 0.062557161
-0.021187507 -0.026105791 0.062677599
-0.01753627 -0.027536549 0.062435791
-0.012553716 -0.028336106 0.0623396
-0.007647546 -0.028594427 0.062456075
-0.0026728308 -0.028718233 0.062387917
0.0023241974 -0.02892255 0.062329412
0.0075046346 -0.029094979 0.062291749
0.012455801 -0.029100567 0.062485639
0.017405223 -0.029129129 0.062427789
0.022391548 -0.029185267 0.062556788
0.027308308 -0.029254558 0.062394883
0.032305259 -0.029333059 0.062436547
0.037498787 -0.029161485 0.062568381
0.042331301 -0.029208174 0.062436584
0.047403026 -0.029200206 0.062452924
0.052384902 -0.029301038 0.0624929
0.057828661 -0.029306294 0.062485848
0.0627755 -0.027850678 0.062441792
0.066068426 -0.025921 0.062455408
-0.025510138 -0.021186413 0.062782876
-0.022489268 -0.022483081 0.062497098
-0.019179588 -0.024147529 0.06210386
0.064426072 -0.022564614 0.062433664
0.067088723 -0.022411885 0.062527187
0.070252195 -0.020659365 0.062332157
-0.025728768 -0.017355505 0.06249062
-0.023300217 -0.017620398 0.062378511
0.064631872 -0.017591862 0.062531389
0.067412876 -0.017550342 0.062448125
0.070213892 -0.019347187 0.06310422
-0.025715258 -0.012682427 0.062542886
-0.023206383 -0.012507696 0.062380645
0.064608835 -0.012391959 0.062270131
0.067289591 -0.012567491 0.062420484
0.070004322 -0.011243822 0.061388243
-0.025394307 -0.0080125127 0.062424339
-0.023073865 -0.0074701244 0.062490921
0.064631805 -0.0077506579 0.062747225
0.067070693 -0.0076885531 0.062357042
-0.025114601 -0.0031590778 0.063404337
-0.022954188 -0.0024860264 0.062486891
0.064635456 -0.0025300498 0.062538855
0.06694404 -0.0025636854 0.062408011
-0.022682354 0.0024277144 0.06251353
-0.019911705 0.0032146522 0.063680843
0.064701803 0.0021396698 0.062659703
