# .PCD v0.7 - Point Cloud Data file format
VERSION 0.7
FIELDS x y z
SIZE 4 4 4
TYPE F F F
COUNT 1 1 1
WIDTH 1290
HEIGHT 1
VIEWPOINT 0 0 0 1 0 0 0
POINTS 1290
DATA ascii
0.032436959 0.022413129 0.032607492
0.037362803 0.022537543 0.032182675
0.042089757 0.022655539 0.031611588
0.046114426 0.022961445 0.030894877
-0.026174132 0.025447521 0.030726422
-0.022117445 0.026234439 0.031641211
-0.017413346 0.027071266 0.032171398
-0.012556753 0.027387679 0.032398786
-0.0076217474 0.027519453 0.0325507
-0.0026667549 0.027597202 0.032985728
0.0022917511 0.027755529 0.033525299
0.007190444 0.027943937 0.034053627
0.012457625 0.028224394 0.034292594
0.017895157 0.028047893 0.03437392
0.022614447 0.027690176 0.034085833
0.027607488 0.027337804 0.033657935
0.032561291 0.027359465 0.033021603
0.037510972 0.027405126 0.032426231
0.042225629 0.027489638 0.032076541
0.046554685 0.027881188 0.031039907
0.050317101 0.029211404 0.030382575
-0.016174644 0.030619543 0.0311011
-0.012086377 0.031859491 0.031579379
-0.0075571309 0.032362636 0.032105647
-0.0025222695 0.032345418 0.032219045
0.0024409294 0.03255308 0.032674268
0.0074643958 0.032714784 0.033103425
0.012546573 0.032757238 0.033556864
0.017548097 0.032754157 0.033761773
0.022543065 0.032582864 0.033583753
0.027465558 0.032530818 0.033393312
0.03248274 0.032487661 0.03312622
0.037483919 0.032426924 0.032474067
0.042319529 0.032399286 0.032100577
0.046642195 0.032358076 0.031719752
-0.010526724 0.035504136 0.030374831
-0.0069134552 0.036257684 0.031349998
-0.002322129 0.037148248 0.031892266
0.0026182795 0.037432391 0.032213386
0.0075467182 0.03741527 0.032312348
0.012571894 0.037491135 0.032407477
0.017538443 0.037657134 0.032706644
0.02241368 0.037593924 0.032829668
0.027463108 0.037583824 0.03290756
0.032471158 0.037522875 0.032652017
0.037350137 0.037468862 0.032257739
0.042229842 0.037048258 0.031848218
0.045724101 0.036828231 0.031394772
-0.0011376047 0.040581118 0.03051717
0.002941357 0.041254703 0.031257339
0.0076917219 0.042096224 0.031715084
0.012519694 0.042189229 0.031730417
0.017607531 0.042226028 0.031867903
0.022453414 0.042406313 0.032232687
0.027443483 0.042450402 0.032283712
0.032393783 0.042394519 0.032297358
0.037315194 0.042343747 0.032054771
0.041620493 0.04213373 0.031085214
0.045654524 0.040585119 0.030371916
0.0093926098 0.045646667 0.030516969
0.012948499 0.046662454 0.030997781
0.017534273 0.047220115 0.031247972
0.022822695 0.046987135 0.031604122
0.027484551 0.047181387 0.031793702
0.032313015 0.047284182 0.03198158
0.03685917 0.046748623 0.031686861
0.040211156 0.045562677 0.030799748
0.014820985 0.050190438 0.030281529
0.017303407 0.05084078 0.030431131
0.023001431 0.051364586 0.03068313
0.028044965 0.051415525 0.030999761
0.031794071 0.051186208 0.031331066
0.03520757 0.050226673 0.030694682
-0.026577078 -0.020578079 0.036431182
-0.023138324 -0.020343727 0.036704697
-0.017444082 -0.020436494 0.035662323
-0.035285305 -0.015570182 0.037125424
-0.032255277 -0.016656483 0.037286688
-0.027450671 -0.017407337 0.037354123
-0.022334469 -0.017465202 0.037393417
-0.017552542 -0.017316772 0.037353743
-0.012976343 -0.016554393 0.037206106
-0.0087360526 -0.015715843 0.036776341
-0.040556513 -0.010839552 0.03604459
-0.037119493 -0.012178817 0.037276849
-0.032862447 -0.012889542 0.03734757
-0.027755866 -0.01425894 0.037637237
-0.022287345 -0.01446653 0.037873533
-0.017202267 -0.014185019 0.037748452
-0.012248812 -0.013311513 0.03766118
-0.0078616086 -0.012289119 0.037315942
-0.0037090878 -0.011111269 0.036564931
-0.041001849 -0.0072244788 0.037034828
-0.037690952 -0.0077195805 0.037417453
-0.034432378 -0.0094006341 0.037997022
-0.010597145 -0.0096545983 0.038938429
-0.0067315786 -0.0086983908 0.037989754
-0.002613629 -0.0074777626 0.037395552
0.0014924875 -0.0066081812 0.036355618
0.0052984576 -0.0051063206 0.03526064
-0.041476998 -0.0024571209 0.037124928
-0.038289893 -0.0025926842 0.037317503
-0.0014221198 -0.0031765238 0.038160689
0.002090048 -0.0023110514 0.037045807
0.0060625146 -0.001667676 0.035863642
0.010107785 -2.502317e-05 0.035292737
-0.041509993 0.0023236249 0.037087947
-0.038307808 0.0027724802 0.037430264
-0.00048348727 0.0019575586 0.038704462
0.0026693137 0.002553985 0.037469607
0.006964833 0.0029187875 0.036146972
0.011614791 0.0038668322 0.035322733
-0.040948302 0.007046361 0.036859784
-0.037456293 0.0076087941 0.037409592
-0.033868458 0.0089231748 0.037699491
-0.00034777154 0.007840042 0.038699228
0.0029002007 0.0074815685 0.037970312
0.0073225559 0.007732145 0.036965359
0.012202784 0.0082219997 0.03616732
0.016566364 0.008759358 0.03565754
0.020111198 0.0091730021 0.035421696
-0.040391397 0.010692038 0.035850037
-0.036820896 0.012071107 0.037159871
-0.032612301 0.012711777 0.037530135
-0.02855023 0.013744983 0.037990723
-0.024453476 0.014782826 0.038624216
-0.0013964267 0.013398608 0.038979713
0.0028619361 0.012685153 0.0380603
0.0075560566 0.012563801 0.037346847
0.012386867 0.012710808 0.036637712
0.017331621 0.0128784 0.035990193
0.02169466 0.013303974 0.036042657
0.025286436 0.01472377 0.035468068
-0.03587481 0.015283874 0.036107868
-0.031793229 0.016651591 0.037235245
-0.027430773 0.01749919 0.037436686
-0.02264788 0.018093724 0.037599165
-0.017825576 0.018655179 0.037915763
-0.012462939 0.0190972 0.03802729
-0.007080954 0.018725498 0.037937526
-0.0023597616 0.017849186 0.03795068
0.0025579804 0.017587688 0.0376072
0.0074849529 0.017549986 0.037466746
0.012534462 0.017569102 0.037157856
0.017424339 0.017797332 0.036518674
0.022364469 0.017751941 0.036053333
0.026842436 0.018245688 0.035631936
0.031086624 0.018740358 0.035258278
-0.030287372 0.020286353 0.035079535
-0.026539963 0.020908298 0.036769938
-0.02226918 0.021803305 0.037084341
-0.017553685 0.022260634 0.037265673
-0.012646451 0.022377567 0.03735945
-0.0075826063 0.022232775 0.037169032
-0.00248296 0.022328131 0.037190374
0.0025262546 0.02241094 0.037395529
0.0075514857 0.022453919 0.03741188
0.012589418 0.02247734 0.037280217
0.017498409 0.022410737 0.036938839
0.022306304 0.022542994 0.036439985
0.027297391 0.022626093 0.036088981
0.032015238 0.022928355 0.035749454
0.036560196 0.023890086 0.035479307
0.04052202 0.024336183 0.035211716
-0.020596514 0.025142845 0.035636202
-0.017131774 0.025690999 0.035636473
-0.012373064 0.025972756 0.035960935
-0.0075142086 0.026440717 0.03576326
-0.00216008 0.026805004 0.03645087
0.0027218875 0.027088238 0.037109468
0.0076095774 0.027399067 0.037284561
0.012571484 0.027407665 0.0372237
0.017492386 0.027420664 0.03701492
0.022403575 0.027397543 0.036578346
0.02731972 0.027425136 0.036303442
0.032395631 0.027454274 0.036153808
0.037094466 0.027478181 0.035937712
0.041484315 0.028410366 0.035426624
-0.0082519446 0.033158861 0.035023689
-0.0012535518 0.033318758 0.035330579
0.0032663811 0.031431407 0.036225893
0.0079765394 0.031763647 0.036629416
0.01268728 0.032280147 0.037119117
0.017526451 0.032389197 0.037080515
0.022298062 0.032406144 0.036675729
0.027405594 0.032431941 0.036414541
0.03242502 0.032577101 0.036329541
0.037453953 0.032776527 0.036514409
0.04104263 0.032238137 0.036376182
-0.0014394268 0.035702884 0.035278074
0.0033178702 0.03713347 0.035403285
0.0081824735 0.037105408 0.035328276
0.013027915 0.036929268 0.036451638
0.017789764 0.037111845 0.036906749
0.022493754 0.037369516 0.036851637
0.027398957 0.037427902 0.036626987
0.032276303 0.037369903 0.036720525
0.036841117 0.036757693 0.036187235
0.041567314 0.036594953 0.035470203
0.0066260365 0.040317558 0.035096765
0.014551981 0.04051451 0.037195407
0.017657027 0.041381415 0.036336645
0.022435356 0.041979618 0.036112972
0.027635019 0.04180437 0.036487654
0.031795114 0.042048849 0.03611419
0.036092531 0.041074719 0.035520032
0.02298101 0.045642726 0.035621136
0.027864629 0.045884356 0.035487708
0.03207615 0.045729212 0.035606392
-0.024602098 -0.020148102 0.040196739
-0.035254784 -0.015086657 0.044037949
-0.031963002 -0.016408421 0.042172644
-0.027436059 -0.017204121 0.04215325
-0.022461016 -0.017327836 0.042329695
-0.017569933 -0.016764199 0.04241769
-0.013084328 -0.015976464 0.042113449
-0.0096611846 -0.015453368 0.040691633
-0.036749434 -0.012110369 0.042406488
-0.033041749 -0.013030711 0.042076092
-0.027643392 -0.014120397 0.041279417
-0.022508781 -0.01450149 0.042272538
-0.017084027 -0.01397141 0.042519946
-0.012382039 -0.012832005 0.042419516
-0.008248643 -0.011759868 0.042432547
-0.0043706535 -0.010246782 0.042672493
-0.040473558 -0.0065106628 0.042678218
-0.038219001 -0.0078476546 0.042107396
-0.034246285 -0.0094849523 0.041065596
-0.010830121 -0.0094688646 0.042972285
-0.0070358841 -0.0080938619 0.042617708
-0.0031051696 -0.0071178074 0.042415604
0.00021336043 -0.005154877 0.043242682
-0.040923879 -0.0026987526 0.042351857
-0.038980518 -0.0022248081 0.042238556
-0.0054939347 -0.0042142845 0.043508399
-0.0023289509 -0.002803822 0.042603288
0.00078758853 -0.0018551794 0.04215344
-0.040871825 0.0023024492 0.042205464
-0.038590658 0.002887778 0.042317696
-0.0015548636 0.0023706038 0.042651657
0.0017863607 0.0029765659 0.042196214
-0.040483743 0.0061321962 0.040688179
-0.037226126 0.0074378573 0.042403184
-0.033819683 0.008670371 0.04233304
-0.0012849213 0.0076202699 0.042687915
0.0017661455 0.0074229054 0.042217549
0.0056701018 0.0084652686 0.040269177
-0.036191754 0.011480245 0.042060163
-0.032547943 0.012648229 0.042442188
-0.028011648 0.013685869 0.042361185
-0.024110008 0.014586987 0.042785801
-0.0060646823 0.014189874 0.043274697
-0.0021354137 0.012808688 0.042590465
0.0015653612 0.01222104 0.04157887
0.006491649 0.012259878 0.040171638
-0.031513654 0.016007992 0.042277493
-0.027254974 0.017245078 0.04243819
-0.02253386 0.017908819 0.042546641
-0.017543882 0.018430188 0.042551246
-0.012446273 0.018301958 0.042554848
-0.0073023061 0.018026762 0.042494267
-0.0028979327 0.017045477 0.042101398
0.0013883066 0.01733223 0.040682875
0.0070426017 0.017895583 0.040174898
-0.025901368 0.020669496 0.04232512
-0.022281971 0.021066364 0.042347156
-0.017528286 0.021232158 0.042413648
-0.012613106 0.021412276 0.042398382
-0.0080930553 0.021189274 0.042191964
-0.0027723301 0.021876587 0.040941864
0.00243329 0.022059033 0.040401131
0.0066746422 0.02178989 0.040091999
0.010068028 0.020762797 0.040011037
-0.0017942794 0.026713967 0.040390652
0.0030260764 0.027931944 0.040473104
0.0065981732 0.027906952 0.040314514
0.010450121 0.0298045 0.040086176
0.0045001227 0.031299353 0.041179519
0.0064944439 0.030968554 0.040570941
0.011951874 0.032241508 0.040523503
0.015007699 0.035110753 0.040046226
-0.035326261 -0.015300351 0.046710055
-0.03190187 -0.016235838 0.04761859
-0.027605765 -0.017043 0.047529735
-0.022369409 -0.017425999 0.047486164
-0.017665591 -0.016649952 0.047535401
-0.013071404 -0.015868641 0.047957268
-0.0094557246 -0.015402913 0.049293805
-0.03678498 -0.012219714 0.047569033
-0.033934407 -0.013955291 0.047465585
-0.021624945 -0.01477175 0.045500867
-0.01686039 -0.014116446 0.047591798
-0.012331573 -0.01276601 0.047565151
-0.0082393028 -0.011698445 0.047624782
-0.004046571 -0.010128026 0.04726696
-0.040684406 -0.0065976107 0.047915548
-0.038640749 -0.0081042871 0.047644071
-0.010668686 -0.0094965072 0.04734572
-0.0070846565 -0.0080376668 0.047521867
-0.0029800641 -0.0071666879 0.047648221
0.00015291825 -0.0062208883 0.048591342
-0.041162118 -0.0025580309 0.047617625
-0.039564017 -0.002689322 0.047539562
-0.0057817507 -0.0041410178 0.047267906
-0.0023621095 -0.0028861854 0.047429856
0.00077198638 -0.0020198412 0.047153112
-0.040961318 0.0022691276 0.04775729
-0.039065875 0.0029977891 0.047477536
-0.0015515359 0.0022418569 0.047464721
0.001651573 0.0029608104 0.047225043
-0.040400445 0.0053285775 0.048273321
-0.037378747 0.0075587407 0.04743091
-0.034063108 0.0091890935 0.046936106
-0.00075012405 0.0075782817 0.04750818
0.0014921884 0.0073722266 0.047456827
-0.035946194 0.011191702 0.047363941
-0.032501031 0.012775394 0.047467023
-0.028645465 0.014135917 0.04737974
-0.024821512 0.014361511 0.045415021
-0.0018740783 0.013036383 0.047399268
0.00075819355 0.011742881 0.047667537
-0.030872257 0.015972767 0.047542922
-0.027282463 0.01731655 0.047592875
-0.022726458 0.018350504 0.047390416
-0.017682863 0.018891437 0.046938788
-0.012476716 0.01909388 0.047512379
-0.00726564 0.018116586 0.04735551
-0.0033768921 0.016937587 0.047585689
-0.026105143 0.02030897 0.047834489
-0.02192677 0.020917708 0.047614165
-0.017467856 0.020931026 0.0474994
-0.012684948 0.021090714 0.04767314
-0.0081894947 0.020717978 0.047443267
-0.0047389306 0.020443797 0.048158016
-0.035839885 -0.015458234 0.052165493
-0.03195592 -0.016487323 0.052663732
-0.027352473 -0.017696846 0.052468721
-0.022373013 -0.017880775 0.052542325
-0.017594768 -0.016636442 0.052433621
-0.013085254 -0.015909323 0.052698087
-0.0096002407 -0.015503769 0.053460319
-0.040054828 -0.010448915 0.0543219
-0.037127901 -0.012461136 0.052514363
-0.034152757 -0.014242142 0.052467894
-0.016364455 -0.01420054 0.052130368
-0.012255644 -0.012962389 0.052531343
-0.0080207372 -0.011810157 0.052762657
-0.0043266891 -0.010230618 0.052555904
-0.040844608 -0.0068389387 0.05273024
-0.039023641 -0.0081513394 0.052469149
-0.010277336 -0.0098710256 0.051386882
-0.0068702018 -0.0084115872 0.052324656
-0.0029260598 -0.0072940136 0.052669045
0.00025450173 -0.00638405 0.053005375
-0.041357797 -0.0025844751 0.0524478
-0.039823741 -0.0028192683 0.051806401
-0.005314854 -0.0044508278 0.050477263
-0.0020412512 -0.003196595 0.052240945
0.0010599875 -0.0020952565 0.052598387
-0.041286957 0.0022724988 0.052717961
-0.039504766 0.0031010634 0.05231297
-0.00076962338 0.0022591841 0.051746752
0.0018226787 0.0029144997 0.052348744
-0.040562965 0.0062417192 0.053259186
-0.037919156 0.0078337155 0.052501105
-0.03456508 0.0093510086 0.052019656
-0.00041448721 0.0074000023 0.05152189
0.0019109597 0.0073795766 0.052572936
-0.036196668 0.011390217 0.052755304
-0.032865699 0.013007511 0.052526265
-0.029179029 0.014350015 0.051626366
-0.0010845421 0.013177885 0.051897287
0.0010578916 0.012269326 0.052747231
-0.031051211 0.01609969 0.05264286
-0.027397478 0.017484564 0.052538037
-0.022997441 0.018846912 0.052505892
-0.01766534 0.019411104 0.05186069
-0.012307074 0.019454941 0.051502764
-0.0068796091 0.018721296 0.052158151
-0.0026283753 0.01733169 0.052489992
0.00055124599 0.015936162 0.053880703
-0.026146449 0.020613588 0.052956522
-0.022043543 0.02120473 0.052947294
-0.017550141 0.021300189 0.052654505
-0.012666103 0.021447413 0.052628919
-0.0079025924 0.021022728 0.052754365
-0.0042739483 0.020675031 0.053181637
-0.026930824 -0.020119239 0.05874778
-0.022383999 -0.020040132 0.058823463
-0.035705302 -0.015898338 0.058770739
-0.032086808 -0.016684115 0.057623807
-0.027460761 -0.017872119 0.057492249
-0.022474352 -0.018143471 0.057439767
-0.017589817 -0.017009867 0.057543732
-0.01295597 -0.016059127 0.057681251
-0.0095376689 -0.015417775 0.057872593
-0.040436275 -0.010600792 0.05833165
-0.037275504 -0.012561045 0.057558332
-0.034003496 -0.014450689 0.057278622
-0.0158436 -0.014467222 0.057350338
-0.01220228 -0.013382653 0.057501044
-0.00777278 -0.012171138 0.057714868
-0.0039873198 -0.010874507 0.058314621
-0.041236062 -0.0071149897 0.057434395
-0.039029587 -0.0083850101 0.05761889
-0.0065278141 -0.0086833052 0.057369139
-0.0025860548 -0.0074767959 0.057641465
0.00066961843 -0.0066593443 0.057804268
-0.041850198 -0.002545374 0.057494484
-0.039771955 -0.0042688213 0.057689827
-0.0013354933 -0.0035366386 0.057458382
0.0015089447 -0.0024015747 0.057563175
-0.041631468 0.0024151874 0.057642147
-0.039616171 0.0038090262 0.057710007
-0.00015310003 0.0012266649 0.05623683
0.0023854517 0.002625481 0.057531528
0.0051668482 0.0048245499 0.05886288
-0.04075731 0.006567819 0.057679817
-0.03812325 0.0080631357 0.057500888
-0.034595229 0.0099323392 0.056631017
0.0029197079 0.0074712476 0.05746929
0.0052373027 0.0070081702 0.058042407
-0.036472935 0.011680207 0.057542261
-0.032978274 0.013285578 0.057473063
-0.029549384 0.014672792 0.057222657
-0.00049328402 0.013815435 0.056479342
0.0018644186 0.012524769 0.057583749
-0.03145403 0.016455928 0.057618562
-0.027656339 0.017890252 0.057285953
-0.023231089 0.019147186 0.057260916
-0.018531566 0.01966116 0.055959612
-0.01032388 0.019998888 0.05546483
-0.0061814268 0.019389372 0.056522708
-0.0020215516 0.01809836 0.05730487
0.0010347284 0.016546473 0.057868332
-0.026239779 0.02085183 0.057927344
-0.022068541 0.021562235 0.057704844
-0.017606128 0.022203881 0.057454739
-0.012577337 0.022427939 0.057429492
-0.0077262712 0.02164397 0.057605792
-0.0035502489 0.02113579 0.057889841
-0.027872222 -0.02013603 0.061714891
-0.022631746 -0.020194698 0.062072046
-0.018375885 -0.020077389 0.061991334
-0.036038935 -0.015890164 0.062337179
-0.032087546 -0.016827095 0.062406134
-0.027525242 -0.018014008 0.062495872
-0.022464853 -0.018170597 0.06244513
-0.01752976 -0.017250139 0.062301788
-0.013071132 -0.016130036 0.06257917
-0.0091183959 -0.015625257 0.062622122
-0.040738009 -0.01100427 0.062733755
-0.037424378 -0.012669885 0.062494874
-0.033996202 -0.014294206 0.062617168
-0.015717627 -0.014510836 0.062218577
-0.012109828 -0.013553116 0.06248001
-0.0076299533 -0.012379371 0.062469803
-0.0036396994 -0.011379228 0.062805995
-0.041323476 -0.0071669365 0.062484026
-0.039065059 -0.0082793739 0.062674679
-0.0062717935 -0.0088552292 0.062162995
-0.0024049985 -0.007674579 0.062546402
0.0010818231 -0.0064438251 0.062678888
-0.041781351 -0.0025805198 0.062542647
-0.039667789 -0.0044601792 0.062241983
-0.00096915022 -0.0036548735 0.062507816
0.0019302156 -0.0024645387 0.062592499
-0.041578505 0.0024438088 0.062384788
-0.039637722 0.0038228051 0.062391873
0.0027223397 0.0025411074 0.062532999
0.0055675716 0.0034522281 0.063328125
-0.040960006 0.0066511729 0.062643416
-0.038402319 0.0079809194 0.062424708
0.0032935767 0.0075490177 0.062420208
0.0055767344 0.007169439 0.062965497
-0.040254924 0.010285928 0.064408012
-0.036525149 0.011792402 0.062524348
-0.033095926 0.0135211 0.062356353
-0.029848959 0.01459409 0.060985532
0.0026876619 0.012459281 0.062417526
0.0052559511 0.011008892 0.063813441
-0.035390742 0.015260395 0.06220362
-0.031530101 0.016620597 0.062455539
-0.027806303 0.018139858 0.06242042
-0.023678796 0.019356251 0.06201455
-0.0052963719 0.019912928 0.060223356
-0.0014032822 0.018691551 0.062222052
0.0014204721 0.017054597 0.06275744
-0.030038789 0.020072233 0.064512655
-0.02653029 0.021146465 0.062557273
-0.022337874 0.021956524 0.062508456
-0.017612195 0.022812454 0.062416159
-0.012620714 0.023191733 0.062427022
-0.0075979079 0.022482596 0.062626712
-0.0030631216 0.021446353 0.062589943
4.1563744e-05 0.020217292 0.062375851
-0.017262539 0.025275409 0.06370569
-0.013622245 0.025076458 0.063772939
-0.035834629 -0.015535495 0.066579334
-0.031961367 -0.016641635 0.067393713
-0.027528442 -0.017496414 0.067535274
-0.02248485 -0.017907152 0.067433387
-0.017676404 -0.017133761 0.067400008
-0.013130498 -0.016234614 0.067376167
-0.008423958 -0.015457959 0.067492969
-0.040582001 -0.010815522 0.067469187
-0.037204422 -0.012300113 0.067434035
-0.033524588 -0.014114752 0.067519367
-0.028755125 -0.01487496 0.069766104
-0.015854087 -0.014675662 0.067056045
-0.012012327 -0.013791041 0.067479916
-0.0075397193 -0.012443072 0.067456275
-0.0032676901 -0.011568658 0.06749846
0.00028964321 -0.010554745 0.069121681
-0.041386317 -0.007242885 0.067496598
-0.038814113 -0.0083274199 0.067537636
-0.006121594 -0.0091470387 0.066979013
-0.002335822 -0.007756013 0.067456029
0.0012137329 -0.0063486644 0.067619644
-0.041642345 -0.0025275766 0.067445874
-0.039768856 -0.0031364581 0.067777641
-0.00060531311 -0.0040991721 0.067251503
0.0021927964 -0.002400456 0.067497067
0.0053420705 -0.00069711573 0.069037594
-0.041650075 0.0026510609 0.067380205
-0.039661046 0.0035739536 0.067736179
0.0030773336 0.0024210855 0.067419335
0.0059468839 0.002951764 0.067624956
-0.041104008 0.0069991364 0.067522563
-0.038532078 0.0080069667 0.067380711
-0.034953356 0.0099798338 0.067030795
0.0035781562 0.0076025994 0.067416787
0.0059353393 0.0075323815 0.067561284
-0.040321302 0.01044156 0.06678953
-0.036759723 0.011851056 0.06731458
-0.033336528 0.013648685 0.067333058
-0.029833961 0.014551697 0.068331257
0.0032101893 0.012472036 0.067481384
0.0055986308 0.011233311 0.067575932
-0.031551093 0.016933436 0.067528531
-0.027772829 0.018244006 0.067384601
-0.023813911 0.019441629 0.067116082
-0.00096542167 0.019056855 0.067197941
0.0018604561 0.017305385 0.067543477
-0.030160312 0.020124035 0.067151055
-0.026706683 0.02131482 0.067448795
-0.022375135 0.022190018 0.067419119
-0.017665504 0.02330848 0.067429066
-0.012594073 0.023578431 0.067303143
-0.0075558205 0.023155648 0.067527935
-0.0027704136 0.021793375 0.067404203
0.00042291792 0.020718202 0.068260491
-0.020170284 0.02512229 0.068019494
-0.016936174 0.025501452 0.067266747
-0.01277003 0.025507219 0.0678012
-0.0074438164 0.02523607 0.067263901
-0.0048727151 0.025338091 0.06616164
-0.035570554 -0.015292902 0.073079154
-0.03172667 -0.016385209 0.072306022
-0.027449051 -0.017101629 0.072373018
-0.022595102 -0.017178504 0.072537847
-0.017594453 -0.016702425 0.072428614
-0.013068703 -0.016017992 0.072315127
-0.008656743 -0.015368126 0.071387298
-0.040551037 -0.010613782 0.072146997
-0.037211917 -0.0120347 0.072430432
-0.033245198 -0.013837113 0.072668537
-0.028744897 -0.014687955 0.073049091
-0.02465228 -0.014815073 0.073481254
-0.016635381 -0.014575755 0.07280311
-0.012042017 -0.013893799 0.072477385
-0.0075889016 -0.012471366 0.072445445
-0.0032935529 -0.011278066 0.072387993
-0.041171774 -0.0071294489 0.072289176
-0.038586386 -0.0079678548 0.072576866
-0.0059439186 -0.0093467953 0.072204821
-0.002135494 -0.0079402132 0.072422117
0.0011787119 -0.0067656329 0.072458565
-0.041496567 -0.0024800727 0.072256543
-0.039547734 -0.0029887694 0.072931141
-0.00062772137 -0.0040286127 0.07264369
0.0021582746 -0.002435145 0.072383061
0.0054180147 -0.000926279 0.072182409
-0.041424286 0.0025318209 0.072374947
-0.039538641 0.0030157436 0.07264515
0.0031932087 0.0024275081 0.072407834
0.0060373442 0.0027682441 0.072489515
-0.041182712 0.0069534811 0.072506055
-0.038517036 0.0079260096 0.072571896
0.0037907178 0.00740752 0.072451375
0.0060297595 0.00732606 0.072506137
-0.040162861 0.010379929 0.072646178
-0.03675041 0.011891684 0.072376534
-0.033332568 0.013623681 0.072367661
0.0034310243 0.012609249 0.0723731
0.0056971433 0.011184136 0.072245963
-0.035181902 0.015699878 0.073685482
-0.031742088 0.016941722 0.072583556
-0.027883803 0.018231224 0.072418049
-0.024133043 0.019533133 0.072128363
-0.0009933355 0.0188697 0.072765224
0.0020056879 0.017372211 0.072529525
-0.030537024 0.020202758 0.072855853
-0.026803566 0.021135883 0.072499566
-0.022473693 0.022388926 0.072445974
-0.017727103 0.023443213 0.072463527
-0.012676409 0.023831237 0.072463572
-0.0074512181 0.023344103 0.072382249
-0.0027611917 0.021924553 0.072488084
0.00055994943 0.020815458 0.072342746
-0.016237529 0.025536994 0.07276807
-0.012725764 0.025709108 0.072597571
-0.0081856912 0.025380662 0.072534524
-0.00491047 0.025180284 0.073081523
-0.035398759 -0.015274236 0.077327967
-0.031843372 -0.016197495 0.077417932
-0.027460052 -0.016560717 0.077471681
-0.022660861 -0.016784063 0.07752534
-0.017705509 -0.016611191 0.077525124
-0.01337124 -0.015984843 0.077421896
-0.0092984121 -0.015171008 0.07785438
-0.040277898 -0.010680957 0.076026
-0.036904369 -0.011957239 0.07739599
-0.032896496 -0.013536499 0.077657148
-0.02827777 -0.01458637 0.077737547
-0.024785928 -0.014862516 0.077815451
-0.016549319 -0.014703615 0.077367604
-0.011967703 -0.014014195 0.077546313
-0.0076325843 -0.012402116 0.077484883
-0.0033379416 -0.011148209 0.077292204
-0.04080965 -0.0070407488 0.077121325
-0.038293857 -0.0078832014 0.077598907
-0.0057871644 -0.0093843397 0.077532873
-0.0022324084 -0.0078758262 0.077417396
0.0012857397 -0.006624097 0.077676259
-0.041223221 -0.0024333003 0.077172287
-0.039305903 -0.0027869737 0.077701107
-0.00063301803 -0.0036521691 0.077605732
0.0023294361 -0.0024930809 0.077528551
0.0055334601 -0.0011638699 0.077854626
-0.041327339 0.0025621648 0.077470772
-0.039304744 0.0027959882 0.077689663
0.0034559635 0.0024120577 0.077443711
0.0060865781 0.0030625793 0.077623412
-0.041077919 0.0069127125 0.077612534
-0.038399868 0.0078272829 0.077632047
0.0038152521 0.0076561933 0.077473886
0.0064000371 0.0073761987 0.077509932
-0.040157147 0.01042225 0.076487578
-0.036717951 0.011906545 0.077541895
-0.033400472 0.013686039 0.07752227
0.0032861647 0.012771904 0.077586733
0.0057176384 0.011507949 0.077649914
-0.035256535 0.015584121 0.077828631
-0.031812977 0.016927997 0.077524945
-0.027855562 0.018270746 0.077493608
-0.023733169 0.019447682 0.077843763
-0.0016215278 0.018466104 0.077931419
0.0021180154 0.017378848 0.077608906
0.0052312179 0.016133273 0.078877009
-0.030982971 0.020308221 0.076899499
-0.02696933 0.021287326 0.077453047
-0.022400765 0.022454958 0.077532865
-0.017734755 0.023465369 0.077488154
-0.012582172 0.023796156 0.077471517
-0.0075372937 0.023279458 0.07754989
-0.0027213548 0.022105847 0.077477194
0.0011004342 0.02081405 0.077608094
-0.021233315 0.025191039 0.078098595
-0.016746834 0.025568573 0.077766776
-0.012949741 0.025603721 0.077562526
-0.0077259159 0.025597129 0.077770248
-0.0043252576 0.025274713 0.077872984
-0.031390049 -0.016049327 0.08249633
-0.027257588 -0.016510271 0.08249969
-0.02244263 -0.016870309 0.082609929
-0.017575668 -0.016734052 0.082627989
-0.013130556 -0.016137667 0.08263021
-0.0092916647 -0.015156705 0.083627857
-0.036722898 -0.01167735 0.08236625
-0.032749601 -0.012926868 0.082642511
-0.028256999 -0.014325953 0.082786165
-0.016447967 -0.014681822 0.083343208
-0.011880158 -0.013902846 0.082610019
-0.0075644907 -0.012476081 0.082510963
-0.0033944594 -0.011375294 0.08254578
-0.040660143 -0.0068315011 0.082123749
-0.037716277 -0.0076520885 0.082587771
-0.034389257 -0.0095199831 0.083663754
-0.0058179414 -0.0088751959 0.082631379
-0.0021869573 -0.0079376185 0.082486689
0.0013377223 -0.0067418986 0.082340777
-0.041245025 -0.0024177642 0.082359254
-0.038770564 -0.0028246958 0.082789287
-0.00082686363 -0.0039477721 0.082636349
0.0026019462 -0.0026783186 0.082376063
0.0056467182 -0.0013415506 0.08256153
-0.041164435 0.0024121969 0.08233054
-0.03902173 0.002582002 0.082761094
0.0035551242 0.0024573354 0.082582794
0.0061982083 0.0028995308 0.082450591
-0.040755216 0.0066565736 0.082197748
-0.038173411 0.0077990117 0.082594082
0.003801761 0.0074820784 0.082341708
0.0063455934 0.0073509915 0.082605764
-0.036489684 0.011857633 0.082450591
-0.033404868 0.013498944 0.08257021
-0.029964698 0.014517767 0.084320232
0.0036589233 0.012743047 0.082213566
0.0059211254 0.011856212 0.0826867
-0.03565266 0.015660264 0.082428358
-0.03187649 0.016912024 0.082508907
-0.027961817 0.018371135 0.082560375
-0.024006139 0.019604856 0.082441658
-0.0017351059 0.01880559 0.081619717
0.0025291648 0.017518738 0.082469888
0.0055379593 0.015791422 0.082432859
-0.030381475 0.020147413 0.082278006
-0.026793161 0.021251053 0.08241494
-0.022377806 0.022229379 0.082493313
-0.017666427 0.023449201 0.082591876
-0.012628919 0.023680938 0.082442291
-0.007488512 0.023172999 0.082459241
-0.0026988741 0.022185653 0.082479432
0.0011503911 0.020728257 0.082509585
-0.020763163 0.025193164 0.082501285
-0.017015995 0.025569014 0.082775034
-0.012779613 0.025592275 0.082763501
-0.0074969851 0.025612678 0.082613684
-0.0040602484 0.025365941 0.082561478
-0.030924572 -0.015932033 0.087515861
-0.027216839 -0.016398109 0.087424286
-0.022534346 -0.016698454 0.087541841
-0.017594852 -0.016534479 0.087528817
-0.013057431 -0.016086113 0.087521307
-0.009276256 -0.015212693 0.08785262
-0.036282457 -0.011351138 0.087127313
-0.032462772 -0.012534216 0.087535024
-0.02789589 -0.014004037 0.087843992
-0.022520764 -0.014563441 0.088262148
-0.016946552 -0.014567673 0.08785598
-0.012171333 -0.013740499 0.087671638
-0.0076926625 -0.012367904 0.087539233
-0.0035626295 -0.011315349 0.087424636
-0.040416703 -0.0061164144 0.08607474
-0.037229937 -0.0074383039 0.08743985
-0.034097139 -0.0091109425 0.088023923
-0.0063568559 -0.0088323066 0.087643802
-0.0024090165 -0.0077581131 0.087544717
0.0014764899 -0.0065323124 0.087584786
-0.040801007 -0.0019426891 0.087087311
-0.038311329 -0.0026415568 0.087685749
-0.0014726366 -0.0038221711 0.087962724
0.0025410554 -0.0026860621 0.087600954
0.0056937775 -0.0014624533 0.087765492
-0.040809788 0.0023939922 0.087192968
-0.038619161 0.0026113852 0.087670512
0.0031975245 0.0023443124 0.087553635
0.0063613248 0.0029226535 0.087814815
-0.040608078 0.0062392219 0.086836904
-0.037665818 0.0077174297 0.087449878
-0.034412593 0.009327597 0.088522203
0.00407418 0.0070978375 0.087514386
0.0064765201 0.0073537021 0.087607078
-0.036383133 0.011866393 0.087269157
-0.033219595 0.01322921 0.087546095
-0.029532278 0.014536211 0.089294776
0.0041403454 0.013056537 0.087481886
0.0062832101 0.012280777 0.087831192
-0.035303038 0.01614744 0.087954864
-0.031892508 0.016829498 0.087589324
-0.027840134 0.018140746 0.087713569
-0.024085101 0.019329419 0.088009372
-0.00012728777 0.019456143 0.086051837
0.0025978982 0.017769845 0.087335877
0.0055143507 0.015777161 0.08745908
-0.026425421 0.021118911 0.087452419
-0.022327766 0.022294166 0.087669581
-0.017654918 0.023491982 0.087492883
-0.012753786 0.023822244 0.087397829
-0.007561266 0.023546625 0.087265156
-0.0025780089 0.022603966 0.087488107
0.00095548178 0.021105692 0.087867588
-0.021072511 0.025066273 0.089272395
-0.017122241 0.025823222 0.087861963
-0.012630159 0.025844771 0.087809496
-0.0077996161 0.025865968 0.087841794
-0.0041262992 0.025402885 0.088211179
-0.030545151 -0.015597319 0.091747023
-0.026926665 -0.016078928 0.092455648
-0.02237205 -0.016526636 0.092560276
-0.017636955 -0.016540529 0.09258616
-0.012896633 -0.015894912 0.092433006
-0.0096099041 -0.01538914 0.0915877
-0.035918985 -0.010962573 0.092010625
-0.031998444 -0.012145169 0.09254346
-0.02774612 -0.013319463 0.092756324
-0.022817373 -0.014275501 0.092854172
-0.017407661 -0.01437698 0.09287978
-0.01227029 -0.013637369 0.092522398
-0.0076481383 -0.012362289 0.092579335
-0.003778785 -0.011345487 0.092536628
-0.036595292 -0.0072544473 0.092369489
-0.033510111 -0.0083215088 0.092911452
-0.0063227178 -0.0087705618 0.092086829
-0.0024108563 -0.0078203958 0.092486523
0.001452374 -0.0064656953 0.092619039
-0.040349964 -0.0014845271 0.091286279
-0.03749406 -0.0026686834 0.092624307
-0.034429532 -0.0047718016 0.093529128
-0.0013984331 -0.0039113755 0.091799282
0.0026868349 -0.0027901614 0.092369854
0.0061296299 -0.0014410894 0.092249654
-0.040454607 0.0024168715 0.091860943
-0.038033236 0.0025802907 0.092667088
0.0035688281 0.0020447762 0.0922506
0.006783328 0.0027188894 0.092398524
-0.04025612 0.0059994031 0.091174342
-0.037234828 0.0074353581 0.092522092
-0.034580424 0.0086390683 0.093512371
0.0043506143 0.0061360956 0.091671541
0.0068951617 0.007469506 0.092539139
-0.036280233 0.011566417 0.092066541
-0.033189762 0.013134823 0.092531338
-0.02938745 0.014772443 0.092405878
0.0043251398 0.013226102 0.090775639
0.0066013103 0.011464936 0.091930464
-0.035463508 0.016103394 0.090631902
-0.031646583 0.016726453 0.092416316
-0.027651209 0.018069075 0.092569649
-0.023732768 0.019134486 0.092684887
-0.019890523 0.019996103 0.094938874
0.0024503584 0.017614447 0.090622202
0.0053577716 0.015266751 0.090681516
-0.026065443 0.020993842 0.09237808
-0.022221964 0.022118928 0.092579164
-0.017807672 0.023448681 0.092639729
-0.01272487 0.024031201 0.092481762
-0.0078487815 0.024051452 0.092042916
-0.0026955837 0.02374143 0.091597177
0.00077738264 0.02067519 0.091134697
-0.020190546 0.025150863 0.093153603
-0.01688187 0.025580611 0.092472002
-0.012455935 0.026057405 0.092458561
-0.0076702191 0.026190657 0.092714287
-0.0036236539 0.025778603 0.093406059
-0.026969662 -0.015657211 0.096742265
-0.022382382 -0.016026871 0.097380579
-0.017639231 -0.016131012 0.097176179
-0.013131055 -0.015720358 0.097220264
-0.035166215 -0.011096842 0.095702253
-0.031717073 -0.011603506 0.097015172
-0.027496284 -0.01258566 0.097548924
-0.022620756 -0.013470532 0.097640708
-0.017573185 -0.013860629 0.097692348
-0.012470298 -0.013504914 0.097435415
-0.0076893428 -0.012086706 0.097440049
-0.0038426404 -0.01104991 0.097626388
-0.036184754 -0.0065983161 0.097242251
-0.032855362 -0.0079352921 0.097667657
-0.0289612 -0.0093654711 0.098409541
-0.0060419999 -0.0090011256 0.097234473
-0.0022820858 -0.0079069855 0.097406492
0.0015391966 -0.0063871588 0.09735366
-0.036629982 -0.0023527143 0.097375348
-0.034313705 -0.003481894 0.09808144
-0.00055804872 -0.0043749539 0.097589456
0.0027688364 -0.0028570904 0.097464144
0.0061671808 -0.0014398185 0.097364277
-0.037308194 0.002560463 0.097487345
-0.03470863 0.003951821 0.097009376
0.0041504926 0.0016713069 0.097220942
0.0071904785 0.0026629604 0.097703166
0.010389597 0.0035884336 0.098652504
-0.036799438 0.0074116969 0.097642295
-0.034093596 0.008197506 0.097248808
0.0047942153 0.0055390908 0.095863871
0.0082197553 0.0071379468 0.097460896
0.010657517 0.0079352092 0.099042751
-0.035782076 0.011241138 0.09731622
-0.033060621 0.012868263 0.097389683
-0.0296028 0.014843247 0.096656375
0.0089488765 0.01072885 0.09676487
0.011016799 0.011117931 0.098932371
-0.03141458 0.016726455 0.097389586
-0.027614655 0.018095255 0.097267024
-0.023802791 0.019177945 0.096776396
-0.025901455 0.020635473 0.097360767
-0.022273825 0.022033518 0.097352363
-0.017880721 0.023662474 0.097342327
-0.012953972 0.024378214 0.096853331
-0.0095183933 0.024654798 0.096700519
-0.020255223 0.025151208 0.095801547
-0.016800378 0.025669716 0.097174242
-0.012365857 0.026190447 0.097549379
-0.0074882433 0.027004329 0.09746857
-0.0032044412 0.027229737 0.097494669
0.00039898694 0.029307373 0.099985361
-0.025446666 -0.015595083 0.10112823
-0.0226277 -0.015632991 0.10232587
-0.01743101 -0.015787257 0.10243747
-0.013345385 -0.015441144 0.1020992
-0.0099535966 -0.015295461 0.10125287
-0.030970173 -0.011262037 0.10205403
-0.027111201 -0.012171536 0.10223819
-0.022459783 -0.012810474 0.10250536
-0.017643496 -0.013350011 0.10253788
-0.01245057 -0.013311377 0.10251295
-0.0077786786 -0.011915999 0.10253452
-0.0035784703 -0.010765977 0.10271944
-0.035667486 -0.0062107178 0.10222413
-0.032266252 -0.007357676 0.10243915
-0.028493822 -0.0087714521 0.10296519
-0.022370741 -0.0098543642 0.10292786
-0.019929353 -0.0098849703 0.10371219
-0.0060397969 -0.0091903079 0.10276433
-0.0022944969 -0.0079121748 0.1025838
0.0014321211 -0.0064506927 0.10256608
-0.036148846 -0.0020634134 0.10230787
-0.033538949 -0.0030291323 0.10271721
-0.00087136892 -0.0043978896 0.10277385
0.0026717961 -0.0028700312 0.10254459
0.0063577141 -0.0012710766 0.10251744
-0.036682114 0.0025479761 0.10236792
-0.034365661 0.0021854946 0.10299934
0.0041829268 0.0011088975 0.10288547
0.0075633596 0.0025505975 0.10259892
0.011463821 0.0036771405 0.10256914
-0.036352471 0.0074286954 0.10238864
-0.034187324 0.008209507 0.10286996
0.0088572139 0.0063470062 0.1026637
0.012160092 0.0078361994 0.1026417
0.015478871 0.0089457938 0.10397264
-0.035763573 0.011341212 0.10236982
-0.03281131 0.012820949 0.10255717
-0.029519688 0.014684573 0.10259514
0.013403694 0.011885447 0.10272253
0.015917655 0.013509639 0.10348079
-0.035000365 0.016189493 0.10044339
-0.031511728 0.016614199 0.1022381
-0.027709594 0.018103482 0.10244249
-0.023802012 0.019264406 0.10268479
0.016706789 0.015775505 0.10393395
-0.02593055 0.02053993 0.10254101
-0.022392897 0.022040848 0.10243398
-0.018017283 0.023723489 0.10240809
-0.014058076 0.024402957 0.10186289
-0.016848013 0.025861407 0.10253441
-0.012443 0.026680693 0.10255211
-0.0076373173 0.027900215 0.10257016
-0.002780081 0.028764302 0.10259847
0.0013075348 0.029307755 0.10290268
-0.0058013154 0.030243129 0.10399143
-0.0018240408 0.030438473 0.10335087
0.0019439459 0.030701203 0.10365188
-0.022246087 -0.015399269 0.10633725
-0.017178183 -0.015625995 0.1067808
-0.013965986 -0.015390162 0.10573679
-0.030517217 -0.010981959 0.10661259
-0.027120132 -0.011749913 0.10716841
-0.022541633 -0.012676458 0.10741656
-0.017602623 -0.013181441 0.10748042
-0.012594252 -0.012655699 0.10734534
-0.0078592142 -0.011679616 0.1073968
-0.0038980758 -0.010736582 0.10718946
-0.035286732 -0.0052897343 0.10651137
-0.032082457 -0.007171371 0.1070924
-0.028037423 -0.0083344467 0.1071552
-0.024188817 -0.009815244 0.10781138
-0.0066465307 -0.0092207314 0.10767888
-0.0023794123 -0.0077761076 0.10748985
0.0015682427 -0.0064304494 0.10731252
-0.035778686 -0.0018331605 0.10708277
-0.033116166 -0.0026645588 0.10709444
-0.029876627 -0.0048330473 0.10636806
-0.00096898875 -0.0041913935 0.10771216
0.0026172304 -0.0027502822 0.10740713
0.006198931 -0.0013080678 0.10747806
-0.036333583 0.0025786276 0.10728422
-0.033828635 0.0025104743 0.10745816
0.00429609 0.00092314492 0.10764715
0.0076065394 0.0023950257 0.1073464
0.011694323 0.0038155091 0.10750482
-0.036056995 0.0074337902 0.10719945
-0.033792276 0.007862079 0.10751472
0.0090533998 0.0063639772 0.10733494
0.012431245 0.007578217 0.10758962
0.015855819 0.0086928029 0.10790329
-0.035483066 0.011119738 0.10714138
-0.032513313 0.012617332 0.10727201
-0.029439483 0.014445744 0.10789575
0.013222511 0.011506727 0.10769372
0.01701577 0.012737829 0.10787564
0.020476811 0.013735977 0.10935943
-0.03128311 0.016150346 0.10743276
-0.027650328 0.017806308 0.10747308
-0.024193367 0.019467017 0.10757678
0.018147781 0.01688108 0.10795646
0.020035602 0.018352561 0.10919937
-0.025899289 0.020729637 0.1075654
-0.022372924 0.021926045 0.10755043
-0.01796189 0.023698382 0.10750614
-0.013714293 0.02461285 0.10751352
0.01942852 0.020750461 0.10861142
0.020643106 0.022509536 0.10876676
-0.020380054 0.025296122 0.10639547
-0.016977299 0.025822582 0.10761505
-0.012501419 0.026745155 0.10752503
-0.0076769795 0.028224248 0.10744614
-0.0028371641 0.029045476 0.10743444
0.0017898952 0.029464565 0.1075713
0.0051831282 0.02980724 0.10920182
0.013713855 0.029845802 0.10697874
0.019036755 0.027507374 0.10743795
-0.005916818 0.030445497 0.10754708
-0.0023691962 0.030898424 0.10764241
0.0025894793 0.031039063 0.10767897
0.006759549 0.031498916 0.10823768
0.012380958 0.031109791 0.10826255
0.015495723 0.031479165 0.10882218
-0.020326277 -0.015136248 0.11443138
-0.016863767 -0.015090843 0.11074251
-0.01454002 -0.015113952 0.11100923
-0.03000241 -0.010736896 0.11365063
-0.027205488 -0.011497234 0.11252329
-0.022320455 -0.012719369 0.11225766
-0.017559813 -0.01283118 0.11245656
-0.012641424 -0.0123136 0.11238867
-0.0079419427 -0.011318294 0.11242083
-0.0042536748 -0.010563247 0.11244205
-0.031726778 -0.0073759593 0.11240952
-0.028551934 -0.009194307 0.11190871
-0.024253085 -0.009654481 0.11067665
-0.010917331 -0.009859507 0.11316442
-0.0068107834 -0.0088527799 0.11260943
-0.0026496733 -0.0074378042 0.11244535
0.001319404 -0.0061043035 0.11209608
-0.035462644 -0.0011643125 0.11201389
-0.033919208 -0.0028914106 0.11221127
-0.001320489 -0.004075902 0.11244681
0.0026705393 -0.0028390966 0.11250211
0.0061630108 -0.0013253997 0.11256058
-0.036057405 0.0027954762 0.11244727
-0.034209859 0.0027308867 0.11222105
0.0041166334 0.00098351948 0.11253931
0.0076847305 0.0024913971 0.11261086
0.011769061 0.0036351494 0.11260643
-0.03591229 0.00737831 0.11246675
-0.033290975 0.0079063829 0.11243112
0.0091849975 0.0066892565 0.11273693
0.012614748 0.007539704 0.11249644
0.016119765 0.0082523348 0.11244743
-0.035479117 0.011206831 0.1124505
-0.032364734 0.01243598 0.1124533
-0.029163187 0.014090027 0.1129104
0.0096680997 0.010466988 0.11422638
0.013449989 0.011182523 0.11228803
0.017208494 0.012674058 0.11251839
0.020397913 0.013743249 0.11173539
-0.031125089 0.01604859 0.11263914
-0.027387414 0.017543109 0.1124905
-0.023745937 0.019123282 0.11283456
0.018651403 0.017076459 0.11244605
0.020421131 0.018230831 0.11244817
-0.026022773 0.020671565 0.1123817
-0.022134781 0.021858081 0.11246506
-0.017877879 0.023510039 0.11259758
-0.013937452 0.024362883 0.1131383
0.01933906 0.020332478 0.11163268
0.021049403 0.021841643 0.11250726
-0.02028005 0.025209093 0.11267449
-0.016858241 0.025861476 0.11238573
-0.012448248 0.026578078 0.11237931
-0.0076188799 0.027999204 0.11245437
-0.0027556987 0.028992092 0.11257941
0.0017765438 0.029405404 0.11275305
0.0054662945 0.029753439 0.11269176
-0.0059203045 0.030407473 0.11191376
-0.002090791 0.030901069 0.11225542
0.0026007106 0.031114081 0.11258563
0.0072965352 0.031664398 0.11264743
0.012114323 0.031845909 0.11244442
0.015508479 0.031683009 0.11160947
-0.020552546 -0.015069779 0.11770761
-0.018205347 -0.015152492 0.1169961
-0.030344954 -0.010727016 0.11642142
-0.027015658 -0.012422595 0.11727101
-0.022247097 -0.013453105 0.11743242
-0.01730424 -0.013024385 0.11739112
-0.01269862 -0.012140439 0.11746089
-0.0080874376 -0.011117099 0.11737449
-0.0039874977 -0.010418646 0.11695513
-0.031891003 -0.0073029478 0.11674578
-0.02906072 -0.0090477485 0.1173097
-0.010613387 -0.0097207027 0.11820973
-0.0068381922 -0.0086185811 0.1174982
-0.0027865521 -0.0072058248 0.11731361
0.00090466865 -0.0059717866 0.11711937
-0.035408661 -0.0011238809 0.11653344
-0.03400464 -0.002580235 0.11698908
-0.0016733919 -0.0039374642 0.1173617
0.0027027011 -0.0028134622 0.11706399
0.0063770232 -0.0016245568 0.11720948
-0.035765618 0.0027815548 0.11746802
-0.034645293 0.0025414352 0.11694666
0.0040186737 0.0012653582 0.11694533
0.0074260095 0.0025632787 0.11726081
0.011567715 0.0038436006 0.11721998
-0.035729874 0.0072483057 0.11757395
-0.033450607 0.008026056 0.11731187
-0.029905295 0.0094335191 0.1190905
0.0088121332 0.0069513088 0.11745857
0.012510393 0.0076145926 0.11731488
0.016192183 0.0087341173 0.11731058
-0.035401843 0.011176823 0.11703598
-0.032094743 0.012332155 0.11748593
-0.028821141 0.013329884 0.11778105
0.0095454687 0.01042077 0.11703824
0.013749409 0.011090896 0.11720492
0.017287387 0.012607475 0.11752851
0.020742159 0.01403174 0.11790951
-0.030828755 0.015967224 0.1172603
-0.02712767 0.017288374 0.11754114
-0.023427017 0.018843688 0.11752205
0.018596679 0.016757451 0.11739913
0.020681769 0.018180361 0.11792819
-0.025587967 0.020369248 0.11669767
-0.021939877 0.021522872 0.11735969
-0.017671838 0.023032211 0.11744374
-0.013720131 0.024181677 0.11763554
-0.0096655581 0.024885414 0.1175489
0.022007423 0.021518152 0.1170885
-0.020107703 0.025019122 0.11523367
-0.016374819 0.025834829 0.11713842
-0.012321456 0.026271671 0.11732074
-0.0075656786 0.027646124 0.1174668
-0.0027454162 0.028796526 0.11746796
0.0020710959 0.029332779 0.11756536
0.0054634009 0.029647877 0.11666682
-0.0060298545 0.030366309 0.11734347
-0.0017677629 0.030642143 0.11752082
0.0027782558 0.031286173 0.11752187
0.0072739464 0.032150552 0.11761727
0.012501784 0.032906231 0.11677163
0.015224144 0.03238124 0.11549962
-0.02576803 -0.015617621 0.12310679
-0.022357332 -0.015590989 0.12333658
-0.018615518 -0.015272333 0.12300567
-0.025738519 -0.014428782 0.1210723
-0.022149883 -0.014431636 0.12185522
-0.017317126 -0.01364818 0.12241427
-0.012647122 -0.012101892 0.12242107
-0.0084635066 -0.010756211 0.12237386
-0.0048249001 -0.01002076 0.12196296
-0.010776512 -0.0095600411 0.12277519
-0.0070291152 -0.0083941733 0.12261411
-0.0029756897 -0.0069424342 0.12237111
0.0005734326 -0.0057862955 0.12190656
-0.0054981555 -0.0048574992 0.12429506
-0.0020291342 -0.0044796579 0.12247071
0.0028205379 -0.0027644956 0.12224144
0.0061077322 -0.0011476272 0.12227923
-0.040795486 0.0039216587 0.12427666
-0.036828049 0.003752985 0.12248254
-0.034875982 0.0041134763 0.12111045
0.0040824027 0.00069902773 0.1214742
0.0079541551 0.0022338673 0.12248735
0.011489737 0.0039418573 0.12271351
-0.036399454 0.0073526227 0.12291034
-0.033786975 0.0084922099 0.12226231
0.0088357823 0.0064988397 0.12090263
0.012930514 0.0071751438 0.1224823
0.016477523 0.0087524308 0.12267163
-0.035725158 0.011067524 0.12321211
-0.032223463 0.012525839 0.12263289
-0.028474161 0.013732519 0.12240357
0.014486744 0.010785878 0.12212109
0.017724089 0.0125098 0.12259136
0.021068159 0.013532978 0.12247811
-0.031055422 0.015977709 0.1225327
-0.027238393 0.017151274 0.12254241
-0.023391267 0.018792678 0.12266929
-0.019723656 0.019621301 0.12288968
0.018817691 0.016166547 0.12205236
0.021616925 0.017445248 0.12298984
-0.025604824 0.020313583 0.12263218
-0.0217942 0.021425741 0.12267914
-0.017619126 0.022794887 0.12257223
-0.013350923 0.024082869 0.1226669
-0.0098914681 0.024695592 0.12378785
0.023763236 0.020810075 0.12280606
0.025272321 0.021840602 0.123029
-0.015935965 0.025479667 0.12263519
-0.01224263 0.026112569 0.12248696
-0.0074889511 0.027581422 0.12249051
-0.0027963617 0.028772213 0.1222904
0.0015081806 0.029435834 0.12195794
-0.0057030073 0.030075938 0.12464895
-0.0015538742 0.0306428 0.12277556
0.0027110805 0.031666011 0.1226335
0.0072058956 0.033268526 0.12253322
0.010502044 0.034487162 0.1233519
0.0082424516 0.035340514 0.1244802
0.01105101 0.035765734 0.12431689
-0.050879095 -0.025870264 0.12919259
-0.047816813 -0.02675741 0.12898768
-0.042490538 -0.027284926 0.12905459
-0.037542827 -0.026619202 0.12922756
-0.033573885 -0.02575811 0.12930952
-0.055638768 -0.020741228 0.12939462
-0.053087942 -0.022660075 0.12850705
-0.04958516 -0.024876107 0.12863444
-0.03570221 -0.024823634 0.12860125
-0.031967368 -0.023828695 0.12913735
-0.027592123 -0.021499759 0.12922764
-0.024319885 -0.020436168 0.12935993
-0.056633487 -0.017376514 0.12878758
-0.054701772 -0.019216456 0.12737902
-0.02593134 -0.018388493 0.12787659
-0.022400323 -0.017268313 0.12789932
-0.01821739 -0.015892753 0.12793913
-0.014517291 -0.015277447 0.12937489
-0.057559818 -0.012935918 0.12802331
-0.02060627 -0.014727471 0.12691729
-0.016705986 -0.013962692 0.1273974
-0.012625507 -0.012111209 0.12766242
-0.008884253 -0.010804745 0.1274673
-0.056609858 -0.0082067009 0.12879327
-0.054608643 -0.0053422749 0.12884516
-0.010816491 -0.0092974016 0.1274253
-0.0072508976 -0.008107461 0.12750137
-0.0029630617 -0.0066676191 0.1274406
0.00077418948 -0.0054218112 0.12730242
-0.055548143 -0.0043130312 0.12928489
-0.052824657 -0.0029025283 0.12938511
-0.048819091 -0.00093263166 0.1289946
-0.0055504167 -0.0046591847 0.12693571
-0.0019299312 -0.0040390026 0.12774883
0.0026762155 -0.0027376888 0.12749656
0.0061718547 -0.0011190801 0.12754211
-0.047153354 0.0014674871 0.1291994
-0.042478558 0.0030418613 0.12757875
-0.03935295 0.0044428795 0.12707579
0.0045158984 0.00048219561 0.12754357
0.0080190813 0.0019193866 0.12737894
0.011607465 0.0038242536 0.1275682
-0.045889478 0.0059978976 0.12922515
-0.041632928 0.007382689 0.12869021
-0.037461795 0.0075668734 0.12740901
-0.034043867 0.0088600405 0.12756166
0.013163736 0.0067781503 0.12724029
0.016792519 0.0083537735 0.12768875
0.020303762 0.0094894823 0.12846892
-0.040262338 0.010573993 0.12935744
-0.036824118 0.011437531 0.12775725
-0.03245607 0.0127212 0.12746376
-0.028386001 0.013926568 0.12754084
0.014652436 0.011084693 0.12579753
0.017830249 0.012394618 0.12732773
0.021756755 0.012783848 0.12789968
0.02563861 0.013270809 0.12917839
-0.031144198 0.015790291 0.12763251
-0.027137112 0.016943345 0.1276022
-0.022917915 0.018701008 0.12764117
-0.019430963 0.019539524 0.12814601
0.019140227 0.015755685 0.12626845
0.022494933 0.016892098 0.12759064
0.026732989 0.017612789 0.1284041
-0.025373118 0.02007943 0.12788695
-0.021578912 0.02108727 0.12749559
-0.017613884 0.02254861 0.12748247
-0.01369011 0.023981823 0.12726648
0.024784602 0.02036633 0.12723529
0.02702884 0.021448109 0.12921572
0.030487299 0.024718741 0.12957066
-0.015579779 0.025308026 0.12814605
-0.012074333 0.02624874 0.12766945
-0.0076661026 0.027998487 0.12745401
-0.0036689348 0.029292004 0.12705915
0.0014026596 0.029837623 0.12551165
0.03103877 0.02642642 0.12914941
-0.0060055018 0.030292982 0.12823838
-0.0021488681 0.031017559 0.12783495
0.00264885 0.032672849 0.12745184
0.006733642 0.033859488 0.12706026
0.010340212 0.034488164 0.12534194
0.0045231571 0.035545956 0.12949349
0.0080214404 0.036086708 0.12807722
0.012233987 0.037559252 0.1278518
0.017281976 0.039128792 0.12842685
