# .PCD v0.7 - Point Cloud Data file format
VERSION 0.7
FIELDS x y z
SIZE 4 4 4
TYPE F F F
COUNT 1 1 1
WIDTH 1298
HEIGHT 1
VIEWPOINT 0 0 0 1 0 0 0
POINTS 1298
DATA ascii
0.031654175 -0.017457552 0.067380607
-0.046660073 -0.012110651 0.067527182
-0.043047082 -0.012860485 0.06744305
-0.039870452 -0.01474735 0.06748113
0.02867741 -0.012119223 0.067423522
0.031500228 -0.012693515 0.067455471
-0.050568409 -0.0059072836 0.067419097
-0.047522485 -0.0075571444 0.067354448
-0.044174105 -0.0084346365 0.067440107
0.024540385 -0.0053653158 0.066382915
0.027838189 -0.0073471675 0.067440897
0.03124796 -0.0075651347 0.067467049
-0.051486548 -0.0022285441 0.067340344
-0.048223868 -0.0028706377 0.067414023
0.024042254 -0.0019037272 0.067544065
0.027421752 -0.0025462783 0.067492627
0.030440059 -0.0034537325 0.067529455
-0.055521023 0.0041430159 0.067256674
-0.052428197 0.0025954335 0.067405112
-0.0492022 0.0016062872 0.067316905
0.023163989 0.0027870946 0.067476548
0.026869468 0.0021678803 0.067546472
-0.05603566 0.0079228384 0.067375176
-0.052924249 0.0074799629 0.067449249
-0.049822778 0.0053150784 0.068332307
0.01897971 0.0083053801 0.067656092
0.022586264 0.0076143201 0.067381881
0.025595156 0.0065569142 0.067479849
-0.056633089 0.012686182 0.067399263
-0.053745914 0.012250873 0.067404628
0.014664291 0.014587513 0.066314645
0.018009346 0.012852214 0.067348465
0.021688731 0.01209238 0.06742955
-0.056832708 0.017553734 0.067380689
-0.054122329 0.017294262 0.067459531
0.013821098 0.018177221 0.06759432
0.017302021 0.017513661 0.067459062
0.020552943 0.015845375 0.067547396
-0.056772523 0.022312487 0.067521565
-0.053959817 0.022872975 0.067505635
0.0091405092 0.023928082 0.06766247
0.012742895 0.022631358 0.067426942
0.016272452 0.021587349 0.067468479
-0.056092728 0.026820164 0.067372702
-0.052962918 0.027802778 0.067338705
-0.049659509 0.029601345 0.067545541
0.0045483401 0.02921606 0.067756191
0.0079815201 0.027786233 0.067486987
0.011781991 0.026853446 0.06740509
-0.055432003 0.030377213 0.068556048
-0.052190635 0.032120049 0.067412362
-0.048385378 0.033068683 0.067441463
-0.00050658069 0.034573089 0.067330927
0.003148345 0.032978747 0.067440197
0.0072057229 0.031972598 0.067451231
0.010334517 0.030339008 0.067227609
-0.050754972 0.035695385 0.067845732
-0.047175888 0.037037887 0.067489192
-0.043077055 0.038308591 0.067334071
-0.039169263 0.039537329 0.067219928
-0.0055401032 0.039392214 0.06775745
-0.0019467449 0.038076948 0.067483395
0.0021441875 0.037172161 0.067448139
0.0057155914 0.035469387 0.067490041
-0.045631681 0.04031796 0.067318775
-0.041964732 0.04152159 0.067469366
-0.037635393 0.042793214 0.067408442
-0.0329029 0.043753281 0.067573391
-0.027978143 0.04454321 0.067995183
-0.024873804 0.044716991 0.067844838
-0.011399142 0.043977417 0.0677839
-0.00709857 0.043062784 0.067551836
-0.0029033604 0.042097662 0.06742572
0.00077554316 0.040765144 0.067418501
-0.036578901 0.045862753 0.067469962
-0.032178666 0.046937123 0.067416735
-0.027409449 0.047650144 0.067459539
-0.022427091 0.047935531 0.067379728
-0.017510265 0.048109386 0.067403838
-0.012549489 0.04760775 0.067541607
-0.0080460049 0.046358317 0.067330666
-0.0045783515 0.045593839 0.069017977
-0.026895981 0.050411731 0.06756945
-0.022733254 0.050885066 0.067223482
-0.017735472 0.050395202 0.067446798
-0.013041008 0.050263606 0.068374969
-0.011216759 -0.050421856 0.072095565
-0.0074107391 -0.050501619 0.07220535
-0.0022045325 -0.050884083 0.072538845
0.0013302829 -0.050828788 0.072883904
-0.020885561 -0.045751125 0.072040737
-0.017276799 -0.046893183 0.072353862
-0.012602684 -0.047642164 0.072426282
-0.0075519113 -0.047874879 0.072413996
-0.0024921894 -0.047801614 0.072424889
0.0024977943 -0.047573507 0.072422005
0.0072382605 -0.046778969 0.072417714
0.010934304 -0.045557525 0.072293796
-0.02599269 -0.041043408 0.072343245
-0.022290479 -0.042403638 0.072398625
-0.018019253 -0.043110758 0.072338559
-0.013410869 -0.044435974 0.072564811
-0.0016214404 -0.044908211 0.072962895
0.0031987659 -0.044273689 0.07245636
0.0079065785 -0.04317949 0.072467215
0.012462338 -0.04248241 0.072428867
0.016733859 -0.0413155 0.072394595
-0.030721782 -0.035766099 0.072502621
-0.027301684 -0.037358139 0.07242623
-0.02313186 -0.038146019 0.072421446
-0.019903172 -0.039742757 0.072354913
0.0095391711 -0.039849322 0.073614873
0.013358363 -0.038768109 0.072451979
0.017708734 -0.037649788 0.072408468
0.021797452 -0.036737904 0.072494403
-0.03527936 -0.030491622 0.072050728
-0.032048937 -0.032173019 0.072355904
-0.028047413 -0.032951146 0.072449803
-0.024839852 -0.034575183 0.073078848
0.019096045 -0.034032568 0.072434686
0.022711817 -0.032698847 0.072497599
0.026490718 -0.031715363 0.072446905
-0.0366938 -0.026996154 0.072334275
-0.032914773 -0.027786911 0.072509259
-0.029444868 -0.029294774 0.073000237
0.023890456 -0.028654579 0.072617441
0.027441353 -0.027589535 0.072457321
0.030691799 -0.026247513 0.072266459
-0.041044015 -0.021679632 0.07238847
-0.037717134 -0.02259122 0.072435372
-0.034143824 -0.023837592 0.072398514
0.028174609 -0.022608202 0.072519317
0.03131764 -0.022206809 0.072480485
-0.045423932 -0.015706111 0.072452717
-0.042364951 -0.017455753 0.0724115
-0.038731009 -0.018069876 0.072460942
0.028936317 -0.017612208 0.072562858
0.031657383 -0.017441189 0.072380014
-0.046587553 -0.012160534 0.072442181
-0.043014199 -0.012893678 0.072461165
-0.039679952 -0.014688212 0.073642157
0.028762145 -0.01229537 0.072496444
0.031519938 -0.012611361 0.07241793
-0.050460573 -0.0060795029 0.072171129
-0.047465377 -0.0075258771 0.072453581
-0.044189338 -0.0084768441 0.072526671
0.027903657 -0.0072960407 0.072481424
0.03126565 -0.0076988079 0.072331026
-0.05139523 -0.0021512725 0.072465867
-0.048172791 -0.0027693894 0.072400093
0.024041446 -0.0016969641 0.072507039
0.027405694 -0.0024824247 0.072395548
0.030544056 -0.0036255443 0.072347291
-0.055477288 0.0039306264 0.072136968
-0.052429073 0.0027246408 0.072455794
-0.049171071 0.0018438273 0.072502822
0.023003444 0.0028354404 0.072508864
0.026814589 0.0022322894 0.072372116
-0.055985652 0.0078513697 0.072464883
-0.05268712 0.0074456674 0.072436154
-0.04977132 0.0054014297 0.072976016
0.019046377 0.0083352737 0.072564818
0.022521969 0.0076120808 0.072329789
0.025631281 0.006534155 0.072320208
-0.056554817 0.012691647 0.072471507
-0.053667679 0.012274941 0.072531193
0.0147535 0.014271758 0.073131345
0.01791735 0.012751476 0.072499767
0.021737268 0.012197902 0.072254799
-0.056692943 0.017609777 0.072501995
-0.054111622 0.017270861 0.072527125
0.013767813 0.018128103 0.072477341
0.017350284 0.017373294 0.072360419
0.020550638 0.015993187 0.072263949
-0.056690857 0.022321796 0.07237345
-0.05411762 0.022769116 0.072499566
0.0090457546 0.023825668 0.072515532
0.012761494 0.022526225 0.07237754
0.016157381 0.021697098 0.072266772
-0.055956721 0.027016483 0.072544783
-0.052998953 0.027772699 0.072404012
-0.049844667 0.029522797 0.071561292
0.0044579776 0.02909383 0.07276269
0.007867299 0.027780803 0.072473384
0.011752618 0.026761547 0.072466664
-0.055367664 0.030914059 0.072368696
-0.052214865 0.032089051 0.072354056
-0.048258618 0.03316224 0.072471492
-0.044878989 0.034652315 0.074070461
-0.00052433234 0.034386393 0.072551914
0.0030734884 0.032996081 0.072473235
0.0070279781 0.03193574 0.072428569
0.010378013 0.030210853 0.073276728
-0.050741713 0.035799772 0.072427653
-0.047285587 0.037196856 0.072439224
-0.043122411 0.038262263 0.072497845
-0.039005108 0.039577376 0.07261958
-0.0054757344 0.039494853 0.072946511
-0.0020154458 0.037949238 0.072494619
0.002216208 0.037151717 0.072419889
0.0055155852 0.035619866 0.072364032
-0.045779329 0.040549561 0.072971083
-0.042043589 0.041800406 0.072481796
-0.037639435 0.042875256 0.072451741
-0.032888338 0.043575007 0.072501838
-0.028218318 0.04447116 0.072471045
-0.024091471 0.044980258 0.07193923
-0.011691483 0.044116031 0.07225462
-0.0071990285 0.043005683 0.072468407
-0.002890127 0.042075511 0.072476305
0.00068776321 0.040679868 0.072396278
-0.040047459 0.045148458 0.072477147
-0.036759824 0.04594852 0.072574943
-0.032273956 0.047168817 0.072506249
-0.027448868 0.047777515 0.072486885
-0.022518214 0.04812574 0.072498582
-0.017541632 0.048194725 0.072430037
-0.012509848 0.047588453 0.072472505
-0.008146923 0.046463989 0.072436288
-0.0042661112 0.045481626 0.072931476
-0.031393711 0.050002001 0.074999131
-0.027140908 0.050551623 0.072822087
-0.022704083 0.051272225 0.072697341
-0.017530212 0.050601948 0.072546117
-0.013919632 0.050381105 0.072703004
-0.011389877 -0.050447721 0.077464029
-0.0077220341 -0.05056195 0.077292264
-0.0017897928 -0.050825346 0.077177614
0.0014506374 -0.050574284 0.077409819
-0.021027949 -0.045576997 0.077316441
-0.017220983 -0.046778023 0.077496864
-0.012531156 -0.047630448 0.077491626
-0.0075622206 -0.047860697 0.077539638
-0.0024731744 -0.047695369 0.077476189
0.0025663632 -0.047473941 0.077467687
0.0072494587 -0.04661442 0.077396743
0.011199531 -0.045467064 0.077282965
-0.02590305 -0.040967535 0.077227302
-0.022316227 -0.042306971 0.077520549
-0.017953642 -0.043036159 0.077597804
-0.013334653 -0.044343911 0.077581964
-0.0091538252 -0.044916727 0.077120729
-0.00096172607 -0.044804301 0.077411018
0.0030467303 -0.044198494 0.077434763
0.007808432 -0.043111764 0.07751435
0.012519171 -0.042418819 0.077394865
0.016785497 -0.041285314 0.077504851
0.020076497 -0.040102176 0.077489793
-0.030632449 -0.035875738 0.077359512
-0.02726597 -0.037258908 0.077471487
-0.023152417 -0.038035039 0.07743369
-0.019512419 -0.03986463 0.077406153
0.0096274922 -0.039695572 0.077427737
0.013291777 -0.038767193 0.077578746
0.017623227 -0.037611146 0.077536732
0.021645481 -0.036657382 0.077522874
-0.035198577 -0.030143967 0.077076986
-0.032056905 -0.032072254 0.077429868
-0.028161414 -0.03289206 0.077563554
-0.024549704 -0.034545943 0.077149063
0.018880548 -0.033881202 0.077755585
0.02260967 -0.03256771 0.07752879
0.026502874 -0.031520557 0.077574797
-0.036491297 -0.027007829 0.077431709
-0.032803785 -0.027782759 0.07750272
-0.02952202 -0.02901721 0.077631988
0.02383353 -0.028463373 0.077609487
0.027429521 -0.027442632 0.077515058
0.030454066 -0.025989201 0.077322647
-0.040973954 -0.021661652 0.077420883
-0.037583567 -0.022532443 0.077522494
-0.034100376 -0.023560461 0.0775185
0.028095756 -0.022598036 0.077482067
0.03125352 -0.022274161 0.077477306
-0.045291685 -0.015509536 0.077411816
-0.04218879 -0.017408427 0.077466048
-0.038608156 -0.018006247 0.077636123
0.028940549 -0.017495723 0.077448569
0.031613547 -0.017575996 0.077444866
-0.046425734 -0.012195533 0.077420719
-0.042912949 -0.012766303 0.077489629
-0.039643127 -0.014331111 0.078016885
0.028573534 -0.012402353 0.077552803
0.031311501 -0.012714981 0.077440076
-0.050413888 -0.0057422491 0.077362835
-0.047419928 -0.0073964726 0.077483222
-0.044118788 -0.0083412761 0.07754904
0.024943069 -0.006053363 0.079560965
0.027917255 -0.0074244654 0.077526681
0.031108394 -0.007775235 0.077546358
-0.051318366 -0.0020320907 0.077489659
-0.048038717 -0.0027994041 0.077524938
-0.044936929 -0.0044207638 0.079779871
0.024016429 -0.0016332234 0.077530473
0.027414832 -0.0025428545 0.077456139
0.030423991 -0.0035820866 0.077476323
-0.055540662 0.003695498 0.077472895
-0.052391384 0.0027164561 0.077495813
-0.049093775 0.0020811518 0.077483617
0.023083752 0.0028348991 0.077524722
0.02668694 0.0021303569 0.077447519
-0.055948213 0.0080069434 0.077285245
-0.052688908 0.0073977127 0.077492937
-0.049728286 0.0058052121 0.077142775
0.019096272 0.0083959103 0.077409774
0.022500854 0.0075884121 0.077476844
0.025605973 0.0064777713 0.077525467
-0.056640264 0.012630288 0.077432364
-0.053446487 0.012330756 0.077534869
0.014572196 0.014336253 0.077631131
0.017827153 0.012806678 0.077543728
0.021760395 0.012184203 0.077523731
-0.056654222 0.017610529 0.077528335
-0.05398031 0.017385492 0.077464677
0.013647175 0.01806533 0.077568859
0.017356994 0.017422667 0.077502944
0.020541022 0.015855471 0.077489085
-0.056739315 0.022248363 0.077437818
-0.053905211 0.022779657 0.077595301
0.0089197736 0.023737002 0.077633061
0.012772079 0.022438746 0.077539764
0.016085709 0.021734508 0.077542976
-0.056054052 0.027090043 0.077420175
-0.052823048 0.027768314 0.077551879
-0.049570788 0.029279105 0.078096531
0.0042441096 0.029005395 0.078028142
0.0077229324 0.027723277 0.07746613
0.011762834 0.026756708 0.077516794
-0.055406392 0.030812182 0.077280879
-0.052278508 0.03218976 0.077531956
-0.048220258 0.033063121 0.077443294
-0.044637434 0.034682751 0.077183962
-0.00038982293 0.034199681 0.077877492
0.0029910882 0.032806955 0.077526994
0.0070089414 0.032070715 0.077514879
0.010415142 0.030497396 0.077708721
-0.050881177 0.035793308 0.077555887
-0.047387779 0.037283719 0.077464595
-0.043101829 0.038118936 0.077407748
-0.039045878 0.039472118 0.077431671
-0.0056247236 0.039155498 0.077663802
-0.0020665082 0.03792033 0.077495225
0.0021752263 0.037098616 0.077470578
0.0055999048 0.035585959 0.077626839
-0.045684461 0.040681869 0.077603795
-0.042101938 0.04195055 0.077498153
-0.037739228 0.042902686 0.077415243
-0.032842074 0.043687526 0.077553101
-0.028290113 0.044536594 0.077184133
-0.015065482 0.04476114 0.075450554
-0.01121762 0.044262219 0.077356294
-0.007114769 0.042991392 0.077550948
-0.0029008123 0.042117532 0.077492073
0.0008730393 0.040646568 0.077728666
-0.036695074 0.046197526 0.077627487
-0.032282341 0.047281858 0.077467039
-0.027449492 0.047831751 0.077523783
-0.022526627 0.048176017 0.077506222
-0.017492156 0.048266225 0.077418834
-0.012532152 0.047677547 0.07748805
-0.0081197033 0.04643485 0.077490613
-0.0042559048 0.045415707 0.077903368
-0.031132752 0.050132602 0.077043608
-0.027223241 0.050768908 0.077434823
-0.022703081 0.051086091 0.077598885
-0.017211979 0.050630383 0.077492841
-0.013741557 0.050407793 0.077198252
-0.011516769 -0.050363038 0.083343163
-0.0073244651 -0.050413854 0.08275374
-0.0020959682 -0.050516941 0.082909808
0.0013874267 -0.050419759 0.08200676
-0.021044636 -0.045346189 0.082715608
-0.017120296 -0.046680585 0.082592763
-0.012499041 -0.047441892 0.082545519
-0.007521614 -0.047696784 0.082522288
-0.0025491901 -0.047530316 0.082523078
0.0024871607 -0.047452968 0.082508117
0.0071465722 -0.04641242 0.082513064
0.011005729 -0.0454049 0.082090154
-0.025941418 -0.04079257 0.08232978
-0.022199553 -0.042214073 0.082617536
-0.017859727 -0.042957146 0.082606487
-0.013286345 -0.044253662 0.082577802
-0.0078034736 -0.044806909 0.082919389
-0.0013091294 -0.044665445 0.082940653
0.0029768553 -0.044015612 0.082492098
0.0078373048 -0.042885341 0.082565114
0.012377389 -0.042378176 0.082412727
0.016636116 -0.041104428 0.082535341
-0.030566487 -0.0357829 0.082236022
-0.027231105 -0.037285682 0.082494475
-0.023030585 -0.037964419 0.082583189
-0.019440239 -0.039637771 0.083611667
0.0094800759 -0.039754029 0.083165757
0.013227389 -0.038636617 0.082547165
0.017669652 -0.03752251 0.082537875
0.021603229 -0.036561303 0.08248876
-0.031900622 -0.032076079 0.082437187
-0.027873607 -0.0328926 0.082618736
-0.024337554 -0.034533843 0.082854278
0.018770443 -0.033729158 0.082486533
0.022567028 -0.03255206 0.082456902
0.026382921 -0.031577222 0.082402185
-0.036374938 -0.026872875 0.082391486
-0.032783933 -0.027686333 0.08255329
-0.029307401 -0.029228605 0.083001755
0.02385354 -0.028399909 0.082549773
0.027458966 -0.027326105 0.082513645
0.030366359 -0.025732549 0.082629383
-0.040959727 -0.02129815 0.082365751
-0.037531268 -0.022504957 0.082601167
-0.033962097 -0.023389135 0.082608148
0.027869914 -0.02273339 0.082464121
0.031179307 -0.022178728 0.082585752
-0.045287274 -0.015309604 0.082059391
-0.042141657 -0.017294664 0.082488924
-0.03853612 -0.017958678 0.082558364
0.028676257 -0.017454399 0.082622051
0.031467013 -0.017620126 0.082419828
-0.046242759 -0.012100833 0.082466096
-0.042773437 -0.012740076 0.082545727
-0.039517354 -0.014083269 0.082914829
0.02841744 -0.012408737 0.082580686
0.03119947 -0.012588535 0.082514301
-0.050363246 -0.0057392516 0.082308039
-0.047315098 -0.0073954654 0.082553066
-0.043746918 -0.0082425466 0.082639083
0.024653325 -0.0055333138 0.082814388
0.027637899 -0.0074234069 0.082529426
0.0311125 -0.0077396506 0.082458355
-0.051324271 -0.0020195243 0.082517952
-0.047983859 -0.0026806949 0.08251293
-0.044823766 -0.0043700417 0.082937598
0.023991121 -0.0019362569 0.082434982
0.027409127 -0.0025361206 0.082504623
0.030489316 -0.0035022323 0.082288265
-0.055224914 0.0040113889 0.0815439
-0.052295048 0.002656549 0.082511537
-0.04885212 0.0020521567 0.082659848
0.023203302 0.0028295999 0.082504734
0.026646683 0.002074122 0.082525931
-0.055792116 0.0082070027 0.082416914
-0.052622352 0.0074879727 0.082486898
-0.049619801 0.0061757923 0.082593553
0.019130981 0.0084386822 0.082464613
0.022429766 0.0075279749 0.082563616
0.025634734 0.0062903338 0.082275152
-0.056440871 0.01272593 0.082412794
-0.053343829 0.01232466 0.082553141
0.014429797 0.014422957 0.082111865
0.01778201 0.012836576 0.082447387
0.021537494 0.012143555 0.082600854
-0.05655992 0.017490901 0.082456023
-0.053810373 0.017306184 0.082648329
0.01342012 0.017942106 0.082415171
0.017297935 0.017392406 0.082601465
0.020469503 0.015828816 0.0826215
-0.05668655 0.022225309 0.082559809
-0.053804502 0.02267742 0.082459986
0.0089237839 0.023557352 0.082403548
0.012576002 0.022486916 0.082535222
0.016120184 0.021646475 0.082447976
-0.056106158 0.027160766 0.082570016
-0.052911855 0.027553303 0.082482845
-0.049861763 0.02951774 0.081298225
0.0040979274 0.028952859 0.082486212
0.007679977 0.027596815 0.082526051
0.011690523 0.026692178 0.082428135
-0.055528432 0.030549135 0.082494438
-0.052268572 0.032224201 0.082563229
-0.048446957 0.033231854 0.082396552
-0.044796612 0.034954436 0.080667816
-0.00085746706 0.03393067 0.08263199
0.0028561491 0.032738008 0.082541682
0.0070640645 0.032030009 0.082464777
0.010398977 0.030064844 0.082306385
-0.050991699 0.035728805 0.082772925
-0.047448773 0.037279841 0.082603291
-0.043074366 0.038205732 0.082544014
-0.039345089 0.039315313 0.082874633
-0.0055910796 0.039305195 0.082520373
-0.0020817835 0.03778917 0.082534358
0.0022022144 0.037132699 0.08248876
0.0056732181 0.035568036 0.082549497
-0.045807306 0.040712066 0.082836255
-0.04218591 0.04196671 0.082533747
-0.037764572 0.042865656 0.082508735
-0.032857355 0.043780711 0.082361706
-0.028855572 0.044554848 0.081997804
-0.011112155 0.044053543 0.082363628
-0.0071991691 0.042926583 0.08252427
-0.002896864 0.042122066 0.08251439
0.00080264197 0.040753677 0.082500853
-0.040624246 0.045093063 0.082604229
-0.036826722 0.046236981 0.08255139
-0.032372694 0.047335055 0.082549892
-0.027536742 0.047884345 0.082442828
-0.022564519 0.048496008 0.08247257
-0.017391903 0.048299629 0.082583584
-0.012560884 0.04765559 0.082583636
-0.0080052167 0.046570167 0.08265198
-0.0042343731 0.045544807 0.082779564
-0.030293101 0.050192367 0.082826391
-0.02716485 0.050823189 0.082746416
-0.022691486 0.050984927 0.082840674
-0.017755048 0.050618719 0.08249668
-0.013918814 0.050406411 0.082467645
-0.011530921 -0.050199971 0.086886927
-0.0072594876 -0.050501451 0.087084487
-0.0025578584 -0.05047505 0.087043479
0.0012726133 -0.050258439 0.086532578
-0.021014012 -0.045256972 0.087092653
-0.017226053 -0.046560574 0.087461837
-0.012526473 -0.047361542 0.087507412
-0.0075552128 -0.047482375 0.087606981
-0.0026070504 -0.047370128 0.087576024
0.0024697096 -0.047288414 0.087482557
0.0069538192 -0.04632682 0.08754836
0.010544739 -0.045329809 0.086532928
-0.025969369 -0.040758777 0.087168083
-0.022274103 -0.042062331 0.087483309
-0.017768975 -0.042939875 0.087537795
-0.012903254 -0.043982051 0.087707378
-0.0078107747 -0.044716489 0.087643825
-0.0022404843 -0.044609975 0.087904133
0.0029817647 -0.043909781 0.087630041
0.0077823191 -0.04282093 0.08757022
0.012300513 -0.042229168 0.087610953
0.016288066 -0.040965591 0.087539963
-0.030323569 -0.03560251 0.087265432
-0.02716146 -0.037197404 0.087530859
-0.022946762 -0.037907593 0.087569177
-0.019355958 -0.039443489 0.087993845
0.0098761227 -0.039611664 0.087803513
0.013200033 -0.038614914 0.087552018
0.017461536 -0.037403107 0.087554924
0.021471176 -0.036372952 0.087409087
-0.031801987 -0.031915031 0.087505244
-0.027723134 -0.032740358 0.087604433
-0.024339089 -0.03427374 0.087711915
0.018676795 -0.033801798 0.08773084
0.022459736 -0.032426957 0.08752989
0.026112616 -0.031540349 0.08745046
-0.036294993 -0.026668273 0.087473072
-0.032649159 -0.027550807 0.08763428
-0.02916705 -0.02901453 0.087742001
0.023759654 -0.02816554 0.087594941
0.027347038 -0.02722881 0.08757402
0.030308548 -0.026071433 0.087382063
-0.040791731 -0.021276107 0.087241508
-0.037471183 -0.022405509 0.08761856
-0.033898525 -0.023407331 0.087646812
0.024668545 -0.02451252 0.088323608
0.027598055 -0.022662275 0.087593779
0.030870384 -0.022082571 0.087521821
-0.045079764 -0.016157947 0.087263785
-0.042008292 -0.017287375 0.087511756
-0.038400635 -0.017972499 0.087563239
0.028290091 -0.017511541 0.087578423
0.03125453 -0.017545303 0.087594137
-0.046156168 -0.011887337 0.087529078
-0.042771485 -0.012672339 0.087550133
-0.039436217 -0.014208861 0.087669536
0.028133929 -0.012539242 0.08754085
0.030978385 -0.012757313 0.087495379
-0.050432682 -0.0055665784 0.086653486
-0.04728324 -0.0073732538 0.087577276
-0.043747678 -0.0079041328 0.08753553
0.024766102 -0.0057405652 0.087951019
0.027637003 -0.0073702545 0.087608106
0.030732196 -0.0077569014 0.087512471
-0.051125709 -0.0020294741 0.0874433
-0.047842249 -0.0026690129 0.087607883
-0.04458905 -0.0043531894 0.087826721
0.023978906 -0.0021169216 0.087589532
0.027411224 -0.0025911224 0.087510213
0.030411648 -0.0037309099 0.087373249
-0.055329472 0.0042074923 0.087303214
-0.052256379 0.0027529032 0.087505504
-0.048836648 0.0021335525 0.087520316
0.02319514 0.0029118916 0.087574221
0.026492484 0.0021767023 0.087562874
-0.055867244 0.0084224492 0.08732824
-0.052584484 0.0074473755 0.087613508
-0.049540199 0.0064740703 0.087603793
0.019136459 0.0084732361 0.087731272
0.022456717 0.0075727925 0.087607652
0.025495965 0.0060910187 0.087365337
-0.056304071 0.012705258 0.087471612
-0.05325124 0.012417576 0.087495595
0.014684507 0.014573793 0.087310717
0.017957345 0.012778299 0.08765015
0.021488296 0.012094072 0.087647945
-0.056489069 0.017635658 0.08749108
-0.053774487 0.017362468 0.087613188
0.013495706 0.018089149 0.087554529
0.017274842 0.017438123 0.087582186
0.020380165 0.015689591 0.08762344
-0.056731038 0.022321559 0.087537326
-0.053725313 0.022754524 0.087620325
0.008819527 0.023440689 0.087560117
0.012681353 0.022494411 0.087590702
0.016105536 0.021488685 0.08766862
-0.056114174 0.027083928 0.087616459
-0.052832451 0.027721209 0.087521262
-0.049706534 0.029550245 0.08774519
0.0041111312 0.02881518 0.087475955
0.0078027947 0.027623996 0.087419681
0.011699098 0.026879264 0.087640144
-0.055426776 0.030674351 0.088023871
-0.052277975 0.032233924 0.08761593
-0.04841473 0.033074472 0.087612413
-0.00083139649 0.034035906 0.08716996
0.0027850845 0.032787237 0.087492406
0.007069781 0.031987812 0.087534457
0.010396617 0.030187149 0.087691531
-0.05107145 0.035849072 0.087566957
-0.047402266 0.037331395 0.087543234
-0.043134864 0.03826607 0.087477639
-0.039439816 0.039591253 0.087660238
-0.0055847364 0.03935153 0.087524995
-0.0021163465 0.037920393 0.087543972
0.0022304473 0.037099235 0.087600075
0.0055280202 0.035439938 0.087361559
-0.045883581 0.040863074 0.087597497
-0.042279512 0.04216896 0.087561458
-0.037902314 0.043042291 0.087593526
-0.033113349 0.044033937 0.087413594
-0.029164763 0.04474869 0.087438956
-0.015568464 0.044981234 0.088065282
-0.011512076 0.044185441 0.087080032
-0.0070998375 0.042843457 0.087572239
-0.0028120189 0.042219646 0.087529294
0.00062462449 0.040763583 0.087523483
-0.040358651 0.045328889 0.088144995
-0.03695868 0.046300851 0.087536186
-0.032386374 0.04734014 0.087494388
-0.02743951 0.047889877 0.087481529
-0.022534233 0.048290309 0.087628566
-0.017389236 0.048065279 0.087569088
-0.012568684 0.04756004 0.087595254
-0.0079919295 0.046621092 0.087558344
-0.0043341601 0.04531372 0.087510847
-0.030673038 0.050324831 0.087147132
-0.02724855 0.050861239 0.087530538
-0.022320084 0.050635397 0.087347612
-0.018016361 0.050609965 0.087400392
-0.013799212 0.05049124 0.087559089
-0.011336535 -0.050054409 0.090592742
-0.0070454334 -0.050463811 0.09036579
-0.0030176472 -0.050426032 0.09259937
0.00021967026 -0.050190855 0.092901446
-0.020474408 -0.045298107 0.092020445
-0.017077737 -0.046302762 0.092285946
-0.012451228 -0.047197305 0.092436738
-0.0075861495 -0.047539141 0.092533357
-0.0025004786 -0.047408912 0.092547886
0.0024261929 -0.047190752 0.092536345
0.0067809434 -0.046218026 0.092511319
-0.0255489 -0.040579211 0.092136763
-0.022084516 -0.041906007 0.092497155
-0.017719159 -0.042780854 0.092577852
-0.012956033 -0.043919969 0.092545874
-0.0076057259 -0.044565111 0.092643835
-0.0022155812 -0.044444066 0.092487521
0.0029455877 -0.043790814 0.092615217
0.0077398578 -0.042787436 0.092577092
0.012219172 -0.042104151 0.092548147
0.01612545 -0.040742714 0.092581131
-0.030106287 -0.035412539 0.09177693
-0.027055837 -0.037110172 0.092592515
-0.022812491 -0.037798092 0.092593648
-0.019151101 -0.039229527 0.092899464
0.0093302028 -0.039639033 0.092653736
0.013038366 -0.038431376 0.092714027
0.017429395 -0.037385453 0.092617556
0.021436084 -0.03615455 0.092624828
-0.031673331 -0.031838778 0.092605069
-0.027771737 -0.032685507 0.09262082
-0.024222016 -0.034272682 0.092683367
0.018457051 -0.033348478 0.092541568
0.022363819 -0.032493405 0.092537567
0.026065027 -0.031418618 0.092401259
-0.036145765 -0.0264981 0.092557363
-0.032604884 -0.027577819 0.092609942
-0.029137453 -0.02872446 0.092384264
0.023432087 -0.027983967 0.09248244
0.027274719 -0.027259756 0.092523895
0.030256838 -0.026267013 0.091492742
-0.040608924 -0.020911777 0.092407309
-0.037357967 -0.022358246 0.092573449
-0.033772174 -0.023413887 0.092697918
0.024544356 -0.02429183 0.093358085
0.027454743 -0.022577841 0.09251038
0.030763149 -0.021900978 0.092443146
-0.041881777 -0.017181691 0.092580184
-0.038377825 -0.017959271 0.092542775
0.027985489 -0.017557424 0.092542127
0.031138882 -0.017562518 0.092559047
-0.046061177 -0.011815891 0.092563741
-0.042670783 -0.012678556 0.092578113
-0.039600953 -0.013836553 0.092532769
0.027868865 -0.012536902 0.092550114
0.030931789 -0.012653957 0.092622943
-0.050303753 -0.005205459 0.091899827
-0.047218338 -0.0073155416 0.092529841
-0.04374671 -0.0079921298 0.092589483
0.024691651 -0.006030513 0.092308402
0.027580353 -0.0074101137 0.092634894
0.030839305 -0.0079604089 0.092529222
-0.050953139 -0.0019798877 0.092459813
-0.047705412 -0.0026811752 0.092528731
-0.044540811 -0.0042052306 0.092148304
0.023833187 -0.0019875218 0.092662215
0.02730328 -0.0026283679 0.092505202
0.030501461 -0.0038479862 0.092710517
-0.055160243 0.0041109645 0.090343244
-0.052095935 0.002812665 0.092496127
-0.048704006 0.0021298667 0.092634723
0.019889593 0.0047635394 0.093978055
0.022987042 0.0026821077 0.092616372
0.026630169 0.0021292837 0.092388257
-0.055749722 0.008610283 0.092455164
-0.052567691 0.0075462507 0.092497334
-0.049410928 0.0065519563 0.092934221
0.018945411 0.0082778698 0.092768677
0.022407403 0.0075211124 0.092527002
0.025433581 0.0058158459 0.092490017
-0.056146652 0.012613007 0.092522569
-0.053104114 0.012470795 0.092535265
0.014717343 0.014339922 0.092628628
0.017814424 0.012760078 0.092522658
0.02132811 0.012222333 0.092415437
-0.056437466 0.01757578 0.092522226
-0.053772483 0.017373849 0.092712589
0.013496361 0.017931703 0.09264306
0.017219398 0.01734315 0.092466317
0.020386303 0.015534522 0.09246286
-0.056505829 0.022317801 0.092421941
-0.053718656 0.022745389 0.092524968
0.0089969253 0.02338841 0.092537336
0.012623826 0.022448575 0.092526458
0.016050888 0.021551533 0.092231207
-0.056065023 0.026756875 0.092412673
-0.052991647 0.027718659 0.092593983
-0.049703676 0.029550241 0.092102557
0.0042292573 0.029028768 0.092697665
0.0078109615 0.027629854 0.092550233
0.011663205 0.026830884 0.09249641
-0.055267453 0.030924711 0.092248961
-0.052280277 0.032224134 0.092516139
-0.048470296 0.033130463 0.092295207
-0.044902708 0.03494582 0.090679757
-0.00061091647 0.034275584 0.091868944
0.002957355 0.032772142 0.092446148
0.0069852825 0.032004032 0.092489198
0.01028554 0.030059358 0.091373101
-0.050948542 0.035986163 0.092478395
-0.047521252 0.03737722 0.092560023
-0.043241303 0.038442135 0.092419535
-0.039651506 0.039607234 0.092523344
-0.0058449502 0.039563186 0.092254184
-0.001976419 0.037951753 0.092521697
0.0021647064 0.037127513 0.092550635
0.0055741481 0.035312764 0.092000723
-0.04596689 0.040801991 0.092839427
-0.042206455 0.042153765 0.092628598
-0.037801545 0.043061227 0.092450358
-0.03321702 0.044046372 0.092434824
-0.029403539 0.0447875 0.092256479
-0.015029306 0.04493317 0.090895012
-0.011255722 0.044298667 0.092268594
-0.0071763489 0.04299017 0.092530236
-0.0028773064 0.042254884 0.092597917
0.00061752304 0.040621988 0.092531443
-0.040298838 0.045388434 0.092344783
-0.036938999 0.046283834 0.092624694
-0.032261748 0.047410451 0.09257412
-0.027525445 0.047907729 0.092518762
-0.022464575 0.048117705 0.092431456
-0.017396819 0.048017487 0.092617638
-0.012603913 0.047676969 0.092491269
-0.007998242 0.046555631 0.092439227
-0.0044480907 0.04525768 0.092520826
-0.030626368 0.050437339 0.092341915
-0.027160052 0.050932769 0.092604659
-0.022602167 0.050782256 0.092510216
-0.017745566 0.050704114 0.092627332
-0.01399665 0.050522726 0.092769861
-0.005335391 -0.050546221 0.096272647
-0.0028354279 -0.050344534 0.096726224
-0.020450916 -0.045086499 0.097024553
-0.016860919 -0.04611231 0.097445488
-0.012353781 -0.04709838 0.097374894
-0.0074788267 -0.047292925 0.09745533
-0.0024782286 -0.047374688 0.097524613
0.0022721218 -0.04708742 0.097460568
0.0067343484 -0.045931011 0.097425543
-0.025532179 -0.040468376 0.097620539
-0.022069728 -0.041800492 0.097536296
-0.017658217 -0.042706445 0.097483151
-0.012907712 -0.043858364 0.09761937
-0.0075789527 -0.044435427 0.097625419
-0.0022656117 -0.044351682 0.097604014
0.0028485572 -0.04371161 0.097612888
0.0077072 -0.042614587 0.097583421
0.012214729 -0.041959889 0.097497396
0.016059034 -0.040647738 0.097179718
-0.030053329 -0.035888746 0.097287178
-0.026950162 -0.036979571 0.097606108
-0.022691047 -0.037889931 0.097578257
-0.019075407 -0.039249487 0.097630456
0.0091702379 -0.03941565 0.09803424
0.012995442 -0.038105156 0.097553335
0.017412294 -0.037234895 0.097524457
0.02129787 -0.035938915 0.09740857
-0.031384837 -0.0318252 0.097585358
-0.027708614 -0.032637142 0.09754204
-0.024147771 -0.034146495 0.097605892
0.014562171 -0.034748241 0.099360205
0.018162971 -0.033201259 0.097600862
0.022299474 -0.032374788 0.097483791
0.025890859 -0.031198412 0.097415209
-0.036010243 -0.02647407 0.097478859
-0.032518897 -0.027494859 0.097552277
-0.029058974 -0.028750217 0.097465523
0.019530591 -0.029791368 0.097859897
0.023030389 -0.027936205 0.097568057
0.027110364 -0.027314154 0.09755978
0.030120512 -0.025237095 0.09762793
-0.04056368 -0.020639332 0.097477466
-0.037270702 -0.022370787 0.097599156
-0.033712544 -0.023240969 0.097618587
0.024311278 -0.023249555 0.097709872
0.027383346 -0.022510938 0.097558804
0.030533398 -0.021624887 0.097405888
-0.041683368 -0.017158475 0.097545534
-0.03814549 -0.017939398 0.09748856
0.024986526 -0.019873748 0.096558213
0.027780201 -0.017486289 0.097464122
0.03093688 -0.01752843 0.097396053
-0.045856453 -0.011486196 0.097455449
-0.042608071 -0.012607976 0.097559884
-0.039375052 -0.014054662 0.097478859
0.027687963 -0.012412756 0.097586058
0.030716792 -0.012827394 0.097564206
-0.047031589 -0.0072362199 0.097458877
-0.043735117 -0.0078680003 0.097558416
0.024556283 -0.0063626906 0.098070875
0.027554777 -0.0074829576 0.09750706
0.030688701 -0.0078940764 0.097485863
-0.05082342 -0.0016782886 0.097493917
-0.047641084 -0.0026141903 0.097508408
-0.044706888 -0.0040295692 0.097625718
0.023695689 -0.0021700282 0.097529329
0.027269056 -0.0026806518 0.097512528
0.030306458 -0.0041477457 0.097436562
-0.055019706 0.0049155368 0.098628685
-0.052036226 0.0027408297 0.097428069
-0.048579041 0.0021791444 0.097570203
0.019852052 0.0044959802 0.097671844
0.022743661 0.0027173785 0.097579196
0.026534991 0.0022151468 0.097396709
-0.055851262 0.0086384052 0.097193114
-0.052548584 0.0075848228 0.097527444
-0.049438983 0.0069621298 0.097537532
0.018722754 0.0080012856 0.097677454
0.022302529 0.0075252396 0.097463377
0.025372321 0.0055921585 0.097424172
-0.056133199 0.012566563 0.09747941
-0.05276975 0.01242176 0.097496383
-0.049891513 0.010026915 0.095240854
0.014486234 0.014152818 0.097624861
0.017607676 0.012609363 0.09754996
0.021256095 0.012043234 0.097402595
-0.056471184 0.017809832 0.097565509
-0.053731579 0.017297922 0.097653173
0.01330459 0.017998109 0.09757752
0.017117484 0.017221898 0.097482726
0.020356994 0.015363564 0.097286515
-0.056573622 0.022380559 0.097439587
-0.053931195 0.022507781 0.097503498
0.0088335685 0.023298018 0.09763319
0.012562239 0.022436349 0.097510859
0.015874546 0.021453667 0.097579777
-0.055884112 0.026815252 0.097529918
-0.053166773 0.027644509 0.097512238
0.0041835983 0.029035619 0.097570799
0.0077330768 0.027627503 0.097549357
0.011554894 0.026657937 0.097655363
-0.055249244 0.030882746 0.097351395
-0.052237272 0.032235559 0.097476155
-0.048647728 0.033437479 0.097426295
-0.00052382704 0.034463011 0.098067164
0.0029630875 0.032880247 0.097599693
0.0069440091 0.031973239 0.09765552
0.010208015 0.030626023 0.097125918
-0.050982401 0.036017865 0.097532772
-0.04754784 0.037391543 0.097579293
-0.043362755 0.038607117 0.097482346
-0.039655365 0.039886616 0.096210837
-0.0056804447 0.039615549 0.097559743
-0.0018848932 0.037976835 0.09761706
0.0021651818 0.037113529 0.097505003
0.0055177775 0.035367846 0.097273193
-0.046096556 0.040899903 0.097690284
-0.042233184 0.042203482 0.097540729
-0.037738837 0.043006141 0.097492263
-0.032995727 0.044149023 0.097517587
-0.029430551 0.044761643 0.097039491
-0.01147341 0.044299971 0.097559251
-0.007190017 0.042994283 0.097534828
-0.0027803718 0.042185612 0.097597487
0.00056517741 0.040671967 0.097494967
-0.040661089 0.045433354 0.097644538
-0.036959704 0.046421256 0.097576588
-0.032379534 0.047404181 0.097514875
-0.027610503 0.047804326 0.097506188
-0.022705227 0.048129182 0.097519793
-0.017413905 0.048147168 0.097408421
-0.012539241 0.047708355 0.09748286
-0.0079581635 0.046639811 0.097567074
-0.0048792246 0.04535656 0.097448088
-0.030742623 0.050507892 0.097846352
-0.027189104 0.051014349 0.097371392
-0.022503613 0.050968505 0.097480126
-0.017787334 0.050731007 0.097456798
-0.014123498 0.050612148 0.097243778
-0.0027406681 -0.050140295 0.10109121
-0.01655749 -0.045951396 0.10244668
-0.012416539 -0.046808708 0.10235402
-0.0075378213 -0.047070533 0.1024611
-0.0024545183 -0.047182798 0.10245223
0.0022226383 -0.046839792 0.10239639
0.006391813 -0.045720465 0.102511
-0.02544144 -0.04011834 0.10239368
-0.021978725 -0.041705601 0.1024455
-0.017661978 -0.042589717 0.1023927
-0.012885026 -0.04360671 0.10266343
-0.0076394891 -0.044100307 0.10267705
-0.0023963938 -0.044001479 0.10263131
0.0027888259 -0.043290704 0.10246824
0.0075908643 -0.04250589 0.10241772
0.012156385 -0.041796047 0.10240592
0.015762603 -0.040514216 0.10193336
-0.030023227 -0.035778683 0.10137263
-0.02681865 -0.036894839 0.10246493
-0.022680515 -0.037722383 0.10246953
-0.018994866 -0.039051104 0.10264636
0.0087214932 -0.039195016 0.10275684
0.012793713 -0.037738074 0.1025721
0.017214319 -0.03722785 0.10232561
0.021005187 -0.035816096 0.10205466
-0.031305347 -0.031766869 0.10233851
-0.027576046 -0.032613315 0.10248056
-0.02388728 -0.033964835 0.10237269
0.014187885 -0.034287047 0.10289755
0.017856788 -0.032931544 0.10250286
0.022282895 -0.032334615 0.10251953
0.025745163 -0.031035088 0.10213811
-0.035935432 -0.026226312 0.10241611
-0.032486349 -0.02746594 0.10251768
-0.028957143 -0.028528927 0.10264636
0.01928471 -0.02921883 0.1031136
0.022841837 -0.02781745 0.10244242
0.027160522 -0.027212726 0.10253441
0.030202515 -0.025387892 0.10162414
-0.040350039 -0.020784818 0.10222023
-0.037245125 -0.022230105 0.10241119
-0.03357913 -0.023097839 0.10259292
0.024049688 -0.023042854 0.1024624
0.02752248 -0.022511743 0.10249299
0.030606693 -0.021937698 0.10242514
-0.041565016 -0.017082194 0.1024136
-0.038038123 -0.01784154 0.10247684
-0.034546603 -0.019736161 0.10353924
0.024652515 -0.019646298 0.10408285
0.027604194 -0.017545896 0.10238099
0.030817833 -0.017492535 0.10243651
-0.045803081 -0.011337838 0.1024204
-0.042492215 -0.012575653 0.10244507
-0.039287698 -0.01376336 0.10257533
0.02776234 -0.012533253 0.10236932
0.030642001 -0.012544559 0.10242115
-0.046931311 -0.0071990252 0.10242598
-0.043505035 -0.0079684928 0.10253208
0.024453975 -0.0066273976 0.10270464
0.027564097 -0.0075252075 0.10250176
0.030696688 -0.0079114828 0.10264644
-0.050711084 -0.001401839 0.10236387
-0.047647566 -0.0026448234 0.10241896
-0.044493362 -0.0039060956 0.10247152
0.023594825 -0.0021212415 0.10244238
0.027195195 -0.0027071601 0.10245936
0.030433292 -0.003970942 0.10272876
-0.051835969 0.0028929857 0.10228842
-0.048464928 0.0021818774 0.10248848
0.019544665 0.0043292181 0.10213012
0.022583112 0.0025795763 0.10241419
0.026440317 0.0023180705 0.10242552
-0.055600148 0.0087172464 0.10243437
-0.052575856 0.0076379557 0.10240485
-0.049318418 0.0069173723 0.10250852
0.018561002 0.0081139626 0.10251523
0.022324583 0.007503157 0.10241521
0.025398403 0.0054547121 0.10238466
-0.05595167 0.012856538 0.10239024
-0.052772872 0.012372188 0.10255183
-0.049980633 0.010774517 0.10415126
0.014335084 0.013871397 0.10253729
0.017583719 0.012571953 0.10242404
0.021293212 0.012036883 0.10231821
-0.056430113 0.017592626 0.10235903
-0.053601999 0.017311713 0.10250432
0.0097066043 0.019873178 0.10380282
0.013014928 0.017944507 0.10252282
0.017220648 0.017212693 0.10237356
0.020310935 0.01533175 0.10145558
-0.056360848 0.022272307 0.10242838
-0.053802148 0.022471035 0.10261726
0.0087589864 0.02316153 0.10248067
0.012531254 0.022388557 0.10250204
0.015790181 0.02143901 0.10193665
-0.055834562 0.026975211 0.10245603
-0.053119194 0.027811145 0.10247371
0.0040822197 0.02890764 0.10261559
0.0077226637 0.027499268 0.10250074
0.011507442 0.026585102 0.10223493
-0.055208746 0.031017624 0.10225566
-0.052148115 0.032249998 0.10247276
-0.048724558 0.033393282 0.10256315
-0.00071056187 0.034217205 0.10276917
0.0027907814 0.032805339 0.10246331
0.0068520056 0.031928413 0.10243635
0.010250472 0.030335637 0.10172022
-0.050947919 0.035971716 0.10254491
-0.04741706 0.037385274 0.10251676
-0.043191664 0.038724087 0.10248465
-0.039934047 0.039913908 0.10431193
-0.0057764109 0.039372761 0.10269568
-0.0020552734 0.037951984 0.10251796
0.0021145111 0.037052598 0.10251677
0.0054189465 0.035592295 0.10237824
-0.04620333 0.041013073 0.10246544
-0.042281654 0.042237956 0.10249519
-0.037810545 0.043049742 0.10242421
-0.032923721 0.044040445 0.10235203
-0.029292258 0.044770885 0.10202256
-0.011314617 0.044290401 0.10267196
-0.0071731997 0.042863853 0.10248497
-0.0028399385 0.04217099 0.10241318
0.00053667772 0.040483538 0.102531
-0.040515244 0.045606397 0.10287523
-0.036987171 0.046467293 0.10254739
-0.032376248 0.047461107 0.10245265
-0.027577898 0.047771916 0.10245503
-0.022600492 0.048225928 0.10242994
-0.017283441 0.048041962 0.10248204
-0.012525784 0.047569402 0.10241307
-0.008017973 0.046640355 0.10237972
-0.0046102908 0.045395061 0.10280364
-0.030904016 0.050398659 0.10244256
-0.027263401 0.050995018 0.10260687
-0.022560056 0.051087931 0.1025551
-0.017731253 0.050705418 0.10243428
-0.013848037 0.050384596 0.10246827
-0.0044526625 -0.050012801 0.10607453
-0.016426101 -0.045673791 0.10733245
-0.012339565 -0.046533089 0.10735621
-0.0074873962 -0.04678674 0.10733958
-0.0024277582 -0.047074016 0.10734477
0.0022349933 -0.046695095 0.1072427
0.0060813422 -0.045553461 0.10731135
-0.025489904 -0.040042549 0.106113
-0.02203913 -0.041491982 0.10735452
-0.017678933 -0.042468257 0.10738348
-0.012798155 -0.043339755 0.10752816
-0.0075834007 -0.043790191 0.10756707
-0.002262552 -0.043688044 0.10754933
0.0026502206 -0.042934921 0.10739065
0.0075248932 -0.04242285 0.10734913
0.012223409 -0.041582592 0.10732107
0.015694691 -0.040349171 0.10636978
-0.026753498 -0.036840986 0.10743416
-0.022643559 -0.037614029 0.10739685
-0.018779967 -0.038859013 0.10752092
0.0042805253 -0.03958685 0.10900733
0.0082458667 -0.038836244 0.10758294
0.012651755 -0.037602969 0.10740827
0.017168475 -0.037148423 0.1072973
0.020719685 -0.035603844 0.10691267
-0.031169511 -0.031698678 0.10743553
-0.027488632 -0.032476265 0.10743389
-0.023720138 -0.033549011 0.10765962
0.013865704 -0.034112036 0.10767851
0.017881272 -0.032820407 0.10743623
0.022256479 -0.032172032 0.10734786
0.025594201 -0.03093968 0.10699558
-0.035842258 -0.025996743 0.10732245
-0.03236654 -0.027355999 0.10742014
-0.028436998 -0.028260697 0.10762653
0.019091936 -0.028931342 0.10759249
0.022732355 -0.027686935 0.10745659
0.026921902 -0.027148247 0.10751698
0.030088801 -0.025115602 0.10620195
-0.040203955 -0.020667311 0.10682223
-0.037181731 -0.022168227 0.10733912
-0.033193711 -0.022987574 0.10757338
-0.029719489 -0.024657654 0.10917642
0.023942325 -0.023120133 0.10751785
0.027410449 -0.022401232 0.10746993
0.030474562 -0.021683756 0.10738269
-0.041436635 -0.017055627 0.1072914
-0.03777352 -0.017688077 0.10744928
-0.034369089 -0.019212989 0.10825371
0.024803067 -0.019123645 0.1080826
0.027554002 -0.017592818 0.10746339
0.030653238 -0.017457116 0.10722219
-0.045633391 -0.011215568 0.10735594
-0.04245447 -0.012499332 0.10738332
-0.038985223 -0.013375948 0.10769361
0.027781464 -0.01249872 0.10740798
0.030552408 -0.01252379 0.10729703
-0.046732392 -0.0072135883 0.10735072
-0.04320715 -0.00788486 0.10750972
0.024353854 -0.00655072 0.1076054
0.027520813 -0.0075498624 0.10743105
0.030482959 -0.007826251 0.10727279
-0.05061968 -0.0010934381 0.10712145
-0.047505382 -0.0025192632 0.10741977
-0.044369444 -0.0036300921 0.10764739
0.023516936 -0.0021108149 0.1074406
0.027162079 -0.0026674904 0.10738603
0.030203994 -0.0036754864 0.10670344
-0.051641643 0.0028637135 0.10732592
-0.048230253 0.0022550125 0.10741679
0.019450277 0.0038882925 0.10800863
0.02242667 0.0025349197 0.10738469
0.026394406 0.0022561499 0.10738444
-0.055506337 0.0086652432 0.10699107
-0.052507561 0.0076627163 0.10741433
-0.049215551 0.0070616086 0.10759346
0.018465599 0.0080456547 0.10761934
0.022309674 0.0073549105 0.10729533
0.025367348 0.0055650426 0.107589
-0.055952493 0.012812536 0.1072707
-0.052695964 0.012457591 0.1075416
-0.049861193 0.0110896 0.10820407
0.014217765 0.013777435 0.1077395
0.0175317 0.012474352 0.10742436
0.021192042 0.012161179 0.10727092
-0.056430742 0.017640177 0.10744291
-0.053261615 0.017443938 0.10758919
0.0097355256 0.01919312 0.10796302
0.012951978 0.017834418 0.10751799
0.017075112 0.017153479 0.10735592
0.020045683 0.015001964 0.10503761
-0.056357209 0.022270586 0.10742649
-0.053452559 0.022549482 0.10755663
0.0086410921 0.023091186 0.10748021
0.01242177 0.022414513 0.10747628
0.015654495 0.021236164 0.10737219
-0.055880342 0.026892742 0.10748423
-0.052854285 0.027711216 0.10735831
-0.049998768 0.028890952 0.10674943
0.0040645297 0.028763449 0.10748991
0.007645092 0.027549956 0.10749072
0.011478775 0.026666662 0.10760912
-0.055238329 0.030752206 0.10786304
-0.052256174 0.032133121 0.10738412
-0.048636541 0.033218067 0.1074914
-0.0007594513 0.034063131 0.10770032
0.0027298278 0.032666072 0.10749754
0.0068103787 0.03189506 0.10741765
0.010243313 0.0302386 0.1075867
-0.050933205 0.036221195 0.10750967
-0.047535434 0.037405994 0.10737164
-0.043414693 0.03863002 0.10738184
-0.039785463 0.039821964 0.10938995
-0.0056917914 0.039106376 0.10754573
-0.0021573473 0.037794996 0.10740941
0.0020464279 0.03702268 0.10754988
0.0052662715 0.035443902 0.1079804
-0.046215106 0.041168578 0.10746076
-0.042405214 0.042313982 0.10741833
-0.037748151 0.043112263 0.10741993
-0.033151656 0.044113211 0.10724438
-0.029215114 0.044939134 0.10718516
-0.011464952 0.044058152 0.10742096
-0.0072123059 0.042864751 0.10749089
-0.0028263216 0.042167846 0.1074064
0.00056064775 0.040469412 0.10723301
-0.040664751 0.045563117 0.10725249
-0.037008911 0.046490315 0.1074127
-0.032372691 0.047448277 0.10740365
-0.02757941 0.048029561 0.10749363
-0.022422126 0.04816955 0.10750654
-0.017342975 0.048094198 0.10747996
-0.012511353 0.047628421 0.10745633
-0.0080955569 0.046624944 0.10745143
-0.0043179276 0.045485485 0.10734922
-0.031113224 0.050449103 0.10727072
-0.027160631 0.051026948 0.10734171
-0.022720039 0.050989088 0.10760655
-0.017623231 0.050866541 0.10758014
-0.014011952 0.050499011 0.10725741
-0.016261047 -0.04559407 0.1125321
-0.012485588 -0.046258271 0.11239048
-0.0075154281 -0.046617121 0.11237313
-0.0025194373 -0.046666827 0.11232312
0.0023113461 -0.046348989 0.11245658
0.0057918676 -0.045541331 0.11244387
-0.021823939 -0.041300286 0.11241605
-0.017531877 -0.042426936 0.11246802
-0.012719887 -0.043011006 0.11245972
-0.0075978749 -0.043620519 0.11255636
-0.0023680772 -0.04332523 0.11265732
0.0025751253 -0.042636734 0.11247998
0.0074429419 -0.042380139 0.11238503
0.012076662 -0.041387297 0.11228015
0.015444607 -0.040131904 0.11248618
-0.026489617 -0.036705703 0.11242329
-0.022504959 -0.037534371 0.11246511
-0.018433854 -0.03868385 0.11272708
-0.0141679 -0.039967611 0.11339568
0.003995453 -0.039618623 0.11298722
0.0080499649 -0.038385797 0.11262184
0.012643766 -0.037561998 0.1124117
0.017091254 -0.036927104 0.11232595
0.020622896 -0.035276819 0.11197288
-0.031128883 -0.031561524 0.11243549
-0.027527263 -0.032489687 0.11239955
-0.02356247 -0.033342045 0.11243489
0.013504946 -0.034035571 0.11260669
0.017697645 -0.032663669 0.11246086
0.022247463 -0.032181542 0.11234073
0.025434179 -0.03094629 0.11176519
-0.035677802 -0.025859004 0.11249223
-0.032304794 -0.027367717 0.11239652
-0.028282885 -0.028109856 0.11243595
0.019138023 -0.028983368 0.11270825
0.022580223 -0.027561555 0.11237682
0.02661138 -0.027231729 0.11236281
-0.040024798 -0.020554535 0.11160394
-0.036952 -0.022192877 0.1123966
-0.03290667 -0.022765182 0.11248656
-0.02956357 -0.024315581 0.11285266
0.023932677 -0.023070827 0.11263453
0.027397925 -0.022375653 0.11244605
0.030470744 -0.021531407 0.11188658
-0.041250162 -0.01698466 0.11229822
-0.037637465 -0.017613754 0.11244366
-0.034147564 -0.018737119 0.11282881
0.02475257 -0.019060509 0.11306606
0.027566031 -0.017437395 0.11238846
0.030556496 -0.017536059 0.1124998
-0.045472663 -0.010997735 0.11238136
-0.042377472 -0.012468696 0.11240638
-0.03859704 -0.013155228 0.1126426
0.024929492 -0.011335843 0.11289009
0.027668227 -0.012426243 0.11241862
0.030477783 -0.012687255 0.11265917
-0.046589103 -0.007182491 0.11235935
-0.042921394 -0.00780633 0.11253959
-0.03961347 -0.0093702096 0.11351339
0.02430734 -0.0066157221 0.11286788
0.027362695 -0.0075354772 0.11250867
0.030470027 -0.0076284972 0.11283989
-0.050504219 -0.00094917003 0.11240305
-0.047422852 -0.0024586476 0.11250386
-0.044063829 -0.0033747919 0.11267018
0.023335343 -0.0021938803 0.1125471
0.027278982 -0.0026674224 0.11245171
0.030427473 -0.0029861624 0.11404969
-0.051459912 0.002840959 0.11239059
-0.048027501 0.0023135231 0.11240165
-0.044894584 0.0002953533 0.11342128
0.019427953 0.0039960132 0.11225232
0.022436902 0.0025009136 0.11245709
0.026454924 0.0022074422 0.11241253
-0.055542216 0.0091524981 0.11227943
-0.052451666 0.0076557924 0.112469
-0.048982732 0.0071823206 0.11253355
0.018405735 0.0080106705 0.11249027
0.022305124 0.0073983716 0.11234562
0.025383782 0.0054802326 0.11256718
-0.05574701 0.012882816 0.11240067
-0.052657761 0.012401192 0.11247858
-0.049657609 0.01094435 0.1125408
0.014132963 0.013513856 0.1120815
0.017496021 0.012589891 0.11247892
0.021204676 0.012159023 0.11241593
-0.056370866 0.017510775 0.11245783
-0.053117547 0.017574064 0.1124419
0.0098000178 0.019434063 0.1123505
0.012852054 0.017839933 0.11240027
0.017110005 0.017114457 0.11240967
0.020067597 0.01597623 0.11287136
